# .PCD v.7 - Point Cloud Data file format
FIELDS x y z rgb imX imY
SIZE 4 4 4 4 4 4
TYPE F F F F F F
COUNT 1 1 1 1 1 1
WIDTH 829
HEIGHT 1
VIEWPOINT 0 0 0 1 0 0 0
POINTS 829
DATA ascii
-0.035796054 0.704 0.0037030398 1.5389643e-38 291 237
-0.034561705 0.704 0.0037030398 1.5481111e-38 292 237
-0.033280019 0.70300001 0.0036977797 1.5481111e-38 293 237
-0.031956252 0.70099998 0.0036872597 1.5481111e-38 294 237
-0.030727165 0.70099998 0.0036872597 1.5573308e-38 295 237
-0.029455997 0.69999999 0.0036819996 1.5665504e-38 296 237
-0.028228667 0.69999999 0.0036819996 1.5665504e-38 297 237
-0.026924185 0.69800001 0.0036714801 1.584845e-38 298 237
-0.025700359 0.69800001 0.0036714801 1.584845e-38 299 237
-0.024476532 0.69800001 0.0036714801 1.5848446e-38 300 237
-0.023252707 0.69800001 0.0036714801 1.5848446e-38 301 237
-0.022091998 0.69999999 0.0036819996 1.5848798e-38 302 237
-0.020864666 0.69999999 0.0036819996 1.5756604e-38 303 237
-0.019637333 0.69999999 0.0036819996 1.5755886e-38 304 237
-0.018409999 0.69999999 0.0036819996 1.5755886e-38 305 237
-0.017182667 0.69999999 0.0036819996 1.5664058e-38 306 237
-0.015909746 0.69800001 0.0036714801 1.5571503e-38 307 237
-0.01468592 0.69800001 0.0036714801 1.5295642e-38 308 237
-0.013462093 0.69800001 0.0036714801 1.5203447e-38 309 237
-0.012238266 0.69800001 0.0036714801 1.5019062e-38 310 237
-0.011045999 0.69999999 0.0036819996 1.4926865e-38 311 237
-0.0098186666 0.69999999 0.0036819996 1.4742837e-38 312 237
-0.0085913334 0.69999999 0.0036819996 1.4742837e-38 313 237
-0.0073639993 0.69999999 0.0036819996 1.4557374e-38 314 237
-0.0061454331 0.70099998 0.0036872597 1.4281146e-38 315 237
-0.0049303733 0.70300001 0.0036977797 1.4280791e-38 316 237
-0.0036977797 0.70300001 0.0036977797 1.4096398e-38 317 237
-0.0024651866 0.70300001 0.0036977797 1.4096048e-38 318 237
-0.0012343467 0.704 0.0037030398 1.4003852e-38 319 237
0 0.704 0.0037030398 1.3820187e-38 320 237
0.0012343467 0.704 0.0037030398 1.3820187e-38 321 237
0.0024757064 0.70599997 0.0037135598 1.3727638e-38 322 237
0.0037188199 0.70700002 0.0037188199 1.3727638e-38 323 237
0.0049584266 0.70700002 0.0037188199 1.3451777e-38 324 237
0.0061980332 0.70700002 0.0037188199 1.3359582e-38 325 237
0.0074691991 0.70999998 0.0037345996 1.3359226e-38 326 237
0.0087263398 0.71100003 0.0037398601 1.3359226e-38 327 237
0.010001013 0.713 0.0037503797 1.3267399e-38 328 237
0.01129848 0.71600002 0.00376616 1.3267399e-38 329 237
0.0125714 0.71700001 0.0037714199 1.3266342e-38 330 237
0.013867113 0.71899998 0.0037819401 1.2990115e-38 331 237
0.01512776 0.71899998 0.0037819401 1.1701951e-38 332 237
0.016388407 0.71899998 0.0037819401 1.3269278e-38 333 237
-0.050425861 0.71899998 0.0025212932 1.4746908e-38 280 238
-0.049165215 0.71899998 0.0025212932 1.4839103e-38 281 238
-0.047704693 0.71600002 0.0025107733 1.5298946e-38 282 238
-0.046449307 0.71600002 0.0025107733 1.5206751e-38 283 238
-0.045067675 0.71399999 0.0025037599 1.5573346e-38 284 238
-0.043570329 0.70999998 0.0024897333 1.548115e-38 285 238
-0.042206239 0.708 0.00248272 1.5756999e-38 286 238
-0.040907022 0.70700002 0.0024792133 1.5664803e-38 287 238
-0.039611302 0.70599997 0.0024757064 1.5572958e-38 288 238
-0.038373452 0.70599997 0.0024757064 1.5572958e-38 289 238
-0.037030395 0.704 0.0024686933 1.5572952e-38 290 238
-0.035796054 0.704 0.0024686933 1.5572952e-38 291 238
-0.034512613 0.70300001 0.0024651866 1.5665131e-38 292 238
-0.03318534 0.70099998 0.0024581731 1.5665131e-38 293 238
-0.031956252 0.70099998 0.0024581731 1.5849166e-38 294 238
-0.030683333 0.69999999 0.0024546667 1.5849166e-38 295 238
-0.029455997 0.69999999 0.0024546667 1.5941012e-38 296 238
-0.028148014 0.69800001 0.0024476533 1.5848816e-38 297 238
-0.026924185 0.69800001 0.0024476533 1.5664432e-38 298 238
-0.025700359 0.69800001 0.0024476533 1.5480039e-38 299 238
-0.024441468 0.69700003 0.0024441467 1.5480758e-38 300 238
-0.023219392 0.69700003 0.0024441467 1.5480758e-38 301 238
-0.02202888 0.69800001 0.0024476533 1.5572588e-38 302 238
-0.020805053 0.69800001 0.0024476533 1.5480392e-38 303 238
-0.019581227 0.69800001 0.0024476533 1.5663702e-38 304 238
-0.0183574 0.69800001 0.0024476533 1.5663702e-38 305 238
-0.017133573 0.69800001 0.0024476533 1.5571506e-38 306 238
-0.015909746 0.69800001 0.0024476533 1.5571506e-38 307 238
-0.01468592 0.69800001 0.0024476533 1.5295998e-38 308 238
-0.013462093 0.69800001 0.0024476533 1.5019413e-38 309 238
-0.012238266 0.69800001 0.0024476533 1.4926862e-38 310 238
-0.01101444 0.69800001 0.0024476533 1.4834667e-38 311 238
-0.0097906133 0.69800001 0.0024476533 1.4834317e-38 312 238
-0.0085667865 0.69800001 0.0024476533 1.4649925e-38 313 238
-0.0073639993 0.69999999 0.0024546667 1.4556302e-38 314 238
-0.0061366665 0.69999999 0.0024546667 1.4371909e-38 315 238
-0.0049163462 0.70099998 0.0024581731 1.4096767e-38 316 238
-0.0036872597 0.70099998 0.0024581731 1.3912736e-38 317 238
-0.0024651866 0.70300001 0.0024651866 1.3820184e-38 318 238
-0.0012325933 0.70300001 0.0024651866 1.3727989e-38 319 238
0 0.704 0.0024686933 1.354432e-38 320 238
0.0012343467 0.704 0.0024686933 1.3452125e-38 321 238
0.0024686933 0.704 0.0024686933 1.3451772e-38 322 238
0.0037135598 0.70599997 0.0024757064 1.3359576e-38 323 238
0.0049514128 0.70599997 0.0024757064 1.3359226e-38 324 238
0.0061892662 0.70599997 0.0024757064 1.326703e-38 325 238
0.0074481601 0.708 0.00248272 1.3449989e-38 326 238
0.0087140659 0.70999998 0.0024897333 1.3449989e-38 327 238
0.0099729598 0.71100003 0.0024932399 1.3266324e-38 328 238
0.011266919 0.71399999 0.0025037599 1.3266324e-38 329 238
0.0125714 0.71700001 0.0025142799 1.3173427e-38 330 238
0.013867113 0.71899998 0.0025212932 1.3173427e-38 331 238
0.015085679 0.71700001 0.0025142799 1.1883448e-38 332 238
0.016342819 0.71700001 0.0025142799 1.2621015e-38 333 238
0.017649053 0.71899998 0.0025212932 1.3460177e-38 334 238
-0.051758397 0.72000003 0.0012624001 1.4105546e-38 279 239
-0.050425861 0.71899998 0.0012606466 1.4744737e-38 280 239
-0.04902846 0.71700001 0.00125714 1.511352e-38 281 239
-0.047704693 0.71600002 0.0012553866 1.5389696e-38 282 239
-0.046319555 0.71399999 0.00125188 1.5481893e-38 283 239
-0.044878319 0.71100003 0.00124662 1.5574068e-38 284 239
-0.043447599 0.708 0.00124136 1.5574068e-38 285 239
-0.042206239 0.708 0.00124136 1.5664447e-38 286 239
-0.040907022 0.70700002 0.0012396066 1.5664447e-38 287 239
-0.039499093 0.704 0.0012343467 1.5389287e-38 288 239
-0.038264744 0.704 0.0012343467 1.5389287e-38 289 239
-0.037030395 0.704 0.0012343467 1.5665148e-38 290 239
-0.035745207 0.70300001 0.0012325933 1.5665148e-38 291 239
-0.034414422 0.70099998 0.0012290865 1.5849169e-38 292 239
-0.03318534 0.70099998 0.0012290865 1.5849169e-38 293 239
-0.031910665 0.69999999 0.0012273333 1.5849169e-38 294 239
-0.030595668 0.69800001 0.0012238267 1.5849169e-38 295 239
-0.029371841 0.69800001 0.0012238267 1.5848819e-38 296 239
-0.028148014 0.69800001 0.0012238267 1.5572232e-38 297 239
-0.026885614 0.69700003 0.0012220733 1.5479683e-38 298 239
-0.025663542 0.69700003 0.0012220733 1.5479683e-38 299 239
-0.024441468 0.69700003 0.0012220733 1.5571156e-38 300 239
-0.023219392 0.69700003 0.0012220733 1.5571156e-38 301 239
-0.02202888 0.69800001 0.0012238267 1.5662986e-38 302 239
-0.020805053 0.69800001 0.0012238267 1.5662986e-38 303 239
-0.019581227 0.69800001 0.0012238267 1.5571503e-38 304 239
-0.0183574 0.69800001 0.0012238267 1.5571503e-38 305 239
-0.017133573 0.69800001 0.0012238267 1.5571506e-38 306 239
-0.015909746 0.69800001 0.0012238267 1.5571506e-38 307 239
-0.01468592 0.69800001 0.0012238267 1.5111977e-38 308 239
-0.013462093 0.69800001 0.0012238267 1.5019781e-38 309 239
-0.012238266 0.69800001 0.0012238267 1.4926512e-38 310 239
-0.01101444 0.69800001 0.0012238267 1.4834317e-38 311 239
-0.0097906133 0.69800001 0.0012238267 1.45581e-38 312 239
-0.0085667865 0.69800001 0.0012238267 1.4465904e-38 313 239
-0.0073429602 0.69800001 0.0012238267 1.4280441e-38 314 239
-0.0061366665 0.69999999 0.0012273333 1.4188244e-38 315 239
-0.0049093333 0.69999999 0.0012273333 1.3912736e-38 316 239
-0.0036872597 0.70099998 0.0012290865 1.382054e-38 317 239
-0.0024581731 0.70099998 0.0012290865 1.382054e-38 318 239
-0.0012325933 0.70300001 0.0012325933 1.3727986e-38 319 239
0 0.704 0.0012343467 1.3544676e-38 320 239
0.0012343467 0.704 0.0012343467 1.3267729e-38 321 239
0.0024686933 0.704 0.0012343467 1.3542171e-38 322 239
0.0037135598 0.70599997 0.0012378532 1.3449975e-38 323 239
0.0049514128 0.70599997 0.0012378532 1.3449625e-38 324 239
0.0061892662 0.70599997 0.0012378532 1.3264875e-38 325 239
0.0074481601 0.708 0.00124136 1.3264878e-38 326 239
0.0087140659 0.70999998 0.0012448666 1.3264878e-38 327 239
0.0099589331 0.70999998 0.0012448666 1.3173764e-38 328 239
0.01121958 0.71100003 0.00124662 1.3173764e-38 329 239
0.012553867 0.71600002 0.0012553866 1.3080862e-38 330 239
0.013828539 0.71700001 0.00125714 1.3080862e-38 331 239
0.015085679 0.71700001 0.00125714 1.2435532e-38 332 239
0.016342819 0.71700001 0.00125714 1.2619922e-38 333 239
0.017599959 0.71700001 0.00125714 1.299847e-38 334 239
-0.053020801 0.72000003 -0 1.4472877e-38 278 240
-0.05168651 0.71899998 -0 1.4104094e-38 279 240
-0.0502856 0.71700001 -0 1.4744724e-38 280 240
-0.048960082 0.71600002 -0 1.5113148e-38 281 240
-0.047571439 0.71399999 -0 1.5482246e-38 282 240
-0.046254687 0.713 -0 1.5574442e-38 283 240
-0.044878319 0.71100003 -0 1.6033958e-38 284 240
-0.043447599 0.708 -0 1.5941404e-38 285 240
-0.042146627 0.70700002 -0 1.5940308e-38 286 240
-0.040849157 0.70599997 -0 1.5848113e-38 287 240
-0.039499093 0.704 -0 1.5665153e-38 288 240
-0.038264744 0.704 -0 1.5572958e-38 289 240
-0.036872596 0.70099998 -0 1.5481836e-38 290 240
-0.035643511 0.70099998 -0 1.5481836e-38 291 240
-0.034365334 0.69999999 -0 1.5849169e-38 292 240
-0.033137999 0.69999999 -0 1.5849169e-38 293 240
-0.031819493 0.69800001 -0 1.5573308e-38 294 240
-0.030595668 0.69800001 -0 1.5665504e-38 295 240
-0.029371841 0.69800001 -0 1.5389643e-38 296 240
-0.028107686 0.69700003 -0 1.5297446e-38 297 240
-0.026885614 0.69700003 -0 1.5388206e-38 298 240
-0.025663542 0.69700003 -0 1.5204175e-38 299 240
-0.024441468 0.69700003 -0 1.5204175e-38 300 240
-0.023219392 0.69700003 -0 1.511198e-38 301 240
-0.02199732 0.69700003 -0 1.5112696e-38 302 240
-0.020775247 0.69700003 -0 1.5112696e-38 303 240
-0.019553173 0.69700003 -0 1.5387843e-38 304 240
-0.018331099 0.69700003 -0 1.5387843e-38 305 240
-0.017109027 0.69700003 -0 1.5204175e-38 306 240
-0.015909746 0.69800001 -0 1.5204175e-38 307 240
-0.01466488 0.69700003 -0 1.5111624e-38 308 240
-0.013442807 0.69700003 -0 1.4927232e-38 309 240
-0.012220734 0.69700003 -0 1.4835038e-38 310 240
-0.01099866 0.69700003 -0 1.4742484e-38 311 240
-0.0097906133 0.69800001 -0 1.45581e-38 312 240
-0.0085667865 0.69800001 -0 1.4373708e-38 313 240
-0.0073429602 0.69800001 -0 1.4280794e-38 314 240
-0.006119133 0.69800001 -0 1.4188597e-38 315 240
-0.0049093333 0.69999999 -0 1.3821256e-38 316 240
-0.0036819996 0.69999999 -0 1.3821256e-38 317 240
-0.0024581731 0.70099998 -0 1.3728705e-38 318 240
-0.0012290865 0.70099998 -0 1.3544673e-38 319 240
0 0.70300001 -0 1.3359929e-38 320 240
0.0012343467 0.704 -0 1.3267732e-38 321 240
0.0024686933 0.704 -0 1.3174114e-38 322 240
0.0037030398 0.704 -0 1.3174114e-38 323 240
0.0049514128 0.70599997 -0 1.2989014e-38 324 240
0.0061892662 0.70599997 -0 1.2989014e-38 325 240
0.0074376399 0.70700002 -0 1.2989733e-38 326 240
0.008689519 0.708 -0 1.2989733e-38 327 240
0.0099589331 0.70999998 -0 1.2806067e-38 328 240
0.01121958 0.71100003 -0 1.2806067e-38 329 240
0.012518799 0.71399999 -0 1.2805717e-38 330 240
0.013809253 0.71600002 -0 1.2805717e-38 331 240
0.015085679 0.71700001 -0 1.2619916e-38 332 240
0.016342819 0.71700001 -0 1.2435885e-38 333 240
0.017599959 0.71700001 -0 1.2904472e-38 334 240
-0.053020801 0.72000003 -0.0012624001 1.4104082e-38 278 241
-0.05168651 0.71899998 -0.0012606466 1.373494e-38 279 241
-0.0502856 0.71700001 -0.00125714 1.4836545e-38 280 241
-0.048960082 0.71600002 -0.0012553866 1.5113131e-38 281 241
-0.047571439 0.71399999 -0.00125188 1.5390049e-38 282 241
-0.046254687 0.713 -0.0012501266 1.5851027e-38 283 241
-0.044815198 0.70999998 -0.0012448666 1.5943573e-38 284 241
-0.043386232 0.70700002 -0.0012396066 1.5759182e-38 285 241
-0.042087011 0.70599997 -0.0012378532 1.5848844e-38 286 241
-0.040733438 0.704 -0.0012343467 1.5848844e-38 287 241
-0.039499093 0.704 -0.0012343467 1.538929e-38 288 241
-0.038210396 0.70300001 -0.0012325933 1.5481485e-38 289 241
-0.036872596 0.70099998 -0.0012290865 1.5665872e-38 290 241
-0.035643511 0.70099998 -0.0012290865 1.5665872e-38 291 241
-0.034365334 0.69999999 -0.0012273333 1.5757349e-38 292 241
-0.033137999 0.69999999 -0.0012273333 1.5665153e-38 293 241
-0.031819493 0.69800001 -0.0012238267 1.5665151e-38 294 241
-0.030595668 0.69800001 -0.0012238267 1.5572955e-38 295 241
-0.02932976 0.69700003 -0.0012220733 1.5572955e-38 296 241
-0.028107686 0.69700003 -0.0012220733 1.5480758e-38 297 241
-0.026885614 0.69700003 -0.0012220733 1.5388562e-38 298 241
-0.025663542 0.69700003 -0.0012220733 1.5204172e-38 299 241
-0.024441468 0.69700003 -0.0012220733 1.5019778e-38 300 241
-0.023219392 0.69700003 -0.0012220733 1.5019778e-38 301 241
-0.02199732 0.69700003 -0.0012220733 1.5020131e-38 302 241
-0.020775247 0.69700003 -0.0012220733 1.5020131e-38 303 241
-0.019553173 0.69700003 -0.0012220733 1.5294926e-38 304 241
-0.018331099 0.69700003 -0.0012220733 1.5387122e-38 305 241
-0.017109027 0.69700003 -0.0012220733 1.5295292e-38 306 241
-0.015909746 0.69800001 -0.0012238267 1.5295292e-38 307 241
-0.01466488 0.69700003 -0.0012220733 1.4927232e-38 308 241
-0.013442807 0.69700003 -0.0012220733 1.4835035e-38 309 241
-0.012220734 0.69700003 -0.0012220733 1.4742487e-38 310 241
-0.01099866 0.69700003 -0.0012220733 1.4742487e-38 311 241
-0.0097765867 0.69700003 -0.0012220733 1.446591e-38 312 241
-0.0085545136 0.69700003 -0.0012220733 1.4373355e-38 313 241
-0.0073429602 0.69800001 -0.0012238267 1.4096767e-38 314 241
-0.006119133 0.69800001 -0.0012238267 1.4096767e-38 315 241
-0.0049093333 0.69999999 -0.0012273333 1.3821259e-38 316 241
-0.0036819996 0.69999999 -0.0012273333 1.3728705e-38 317 241
-0.0024581731 0.70099998 -0.0012290865 1.372871e-38 318 241
-0.0012290865 0.70099998 -0.0012290865 1.3452125e-38 319 241
0 0.70099998 -0.0012290865 1.3359576e-38 320 241
0.0012325933 0.70300001 -0.0012325933 1.3175183e-38 321 241
0.0024686933 0.704 -0.0012343467 1.3081916e-38 322 241
0.0037030398 0.704 -0.0012343467 1.2897524e-38 323 241
0.0049514128 0.70599997 -0.0012378532 1.2897169e-38 324 241
0.0061892662 0.70599997 -0.0012378532 1.2897169e-38 325 241
0.0074376399 0.70700002 -0.0012396066 1.2713859e-38 326 241
0.008689519 0.708 -0.00124136 1.2713859e-38 327 241
0.0099589331 0.70999998 -0.0012448666 1.2805702e-38 328 241
0.011203799 0.70999998 -0.0012448666 1.2713506e-38 329 241
0.012501267 0.713 -0.0012501266 1.2896465e-38 330 241
0.013809253 0.71600002 -0.0012553866 1.2896465e-38 331 241
0.01506464 0.71600002 -0.0012553866 1.2619187e-38 332 241
0.016320027 0.71600002 -0.0012553866 1.2895414e-38 333 241
0.017599959 0.71700001 -0.00125714 1.2811911e-38 334 241
-0.05294716 0.71899998 -0.0025212932 1.4011157e-38 278 242
-0.051542737 0.71700001 -0.0025142799 1.3550179e-38 279 242
-0.0502856 0.71700001 -0.0025142799 1.4929091e-38 280 242
-0.048960082 0.71600002 -0.0025107733 1.5021286e-38 281 242
-0.047571439 0.71399999 -0.0025037599 1.5482246e-38 282 242
-0.046124939 0.71100003 -0.0024932399 1.5851027e-38 283 242
-0.044688959 0.708 -0.00248272 1.6035772e-38 284 242
-0.043386232 0.70700002 -0.0024792133 1.5758826e-38 285 242
-0.042087011 0.70599997 -0.0024757064 1.6032519e-38 286 242
-0.040733438 0.704 -0.0024686933 1.5756292e-38 287 242
-0.039442986 0.70300001 -0.0024651866 1.5664803e-38 288 242
-0.038101684 0.70099998 -0.0024581731 1.5756999e-38 289 242
-0.036872596 0.70099998 -0.0024581731 1.5482207e-38 290 242
-0.035592664 0.69999999 -0.0024546667 1.5482207e-38 291 242
-0.034267146 0.69800001 -0.0024476533 1.5757712e-38 292 242
-0.033043321 0.69800001 -0.0024476533 1.5665516e-38 293 242
-0.031819493 0.69800001 -0.0024476533 1.5298889e-38 294 242
-0.030595668 0.69800001 -0.0024476533 1.5206693e-38 295 242
-0.02932976 0.69700003 -0.0024441467 1.5114498e-38 296 242
-0.028107686 0.69700003 -0.0024441467 1.5022301e-38 297 242
-0.026885614 0.69700003 -0.0024441467 1.5112698e-38 298 242
-0.025663542 0.69700003 -0.0024441467 1.5020503e-38 299 242
-0.024441468 0.69700003 -0.0024441467 1.5019781e-38 300 242
-0.023219392 0.69700003 -0.0024441467 1.4927586e-38 301 242
-0.02199732 0.69700003 -0.0024441467 1.4836469e-38 302 242
-0.020805053 0.69800001 -0.0024476533 1.4836469e-38 303 242
-0.019581227 0.69800001 -0.0024476533 1.5018709e-38 304 242
-0.0183574 0.69800001 -0.0024476533 1.5018709e-38 305 242
-0.017133573 0.69800001 -0.0024476533 1.4926879e-38 306 242
-0.015886955 0.69700003 -0.0024441467 1.4926879e-38 307 242
-0.01466488 0.69700003 -0.0024441467 1.4651367e-38 308 242
-0.013442807 0.69700003 -0.0024441467 1.4559172e-38 309 242
-0.012220734 0.69700003 -0.0024441467 1.4466623e-38 310 242
-0.01099866 0.69700003 -0.0024441467 1.4374427e-38 311 242
-0.0097765867 0.69700003 -0.0024441467 1.4373355e-38 312 242
-0.0085545136 0.69700003 -0.0024441467 1.428116e-38 313 242
-0.0073429602 0.69800001 -0.0024476533 1.4188964e-38 314 242
-0.006119133 0.69800001 -0.0024476533 1.3912736e-38 315 242
-0.0049093333 0.69999999 -0.0024546667 1.3820184e-38 316 242
-0.0036819996 0.69999999 -0.0024546667 1.3820184e-38 317 242
-0.0024546667 0.69999999 -0.0024546667 1.3544323e-38 318 242
-0.0012290865 0.70099998 -0.0024581731 1.3359932e-38 319 242
0 0.70099998 -0.0024581731 1.3267382e-38 320 242
0.0012325933 0.70300001 -0.0024651866 1.3175186e-38 321 242
0.0024686933 0.704 -0.0024686933 1.2990439e-38 322 242
0.0037030398 0.704 -0.0024686933 1.2806408e-38 323 242
0.0049373866 0.704 -0.0024686933 1.2713856e-38 324 242
0.0061892662 0.70599997 -0.0024757064 1.2713856e-38 325 242
0.0074271196 0.70599997 -0.0024757064 1.2438714e-38 326 242
0.008689519 0.708 -0.00248272 1.2346518e-38 327 242
0.0099589331 0.70999998 -0.0024897333 1.2345445e-38 328 242
0.011203799 0.70999998 -0.0024897333 1.2437642e-38 329 242
0.0124662 0.71100003 -0.0024932399 1.2345448e-38 330 242
0.013809253 0.71600002 -0.0025107733 1.2437645e-38 331 242
0.01506464 0.71600002 -0.0025107733 1.2344396e-38 332 242
0.016320027 0.71600002 -0.0025107733 1.2620622e-38 333 242
0.017599959 0.71700001 -0.0025142799 1.2256936e-38 334 242
-0.05294716 0.71899998 -0.0037819401 1.4010069e-38 278 243
-0.051542737 0.71700001 -0.0037714199 1.3733123e-38 279 243
-0.050215468 0.71600002 -0.00376616 1.4928725e-38 280 243
-0.048823316 0.71399999 -0.0037556398 1.5112756e-38 281 243
-0.047504812 0.713 -0.0037503797 1.5389696e-38 282 243
-0.046124939 0.71100003 -0.0037398601 1.5850674e-38 283 243
-0.044688959 0.708 -0.00372408 1.5943586e-38 284 243
-0.043324865 0.70599997 -0.0037135598 1.5575163e-38 285 243
-0.042087011 0.70599997 -0.0037135598 1.5756658e-38 286 243
-0.040733438 0.704 -0.0037030398 1.5756658e-38 287 243
-0.039442986 0.70300001 -0.0036977797 1.5665166e-38 288 243
-0.038101684 0.70099998 -0.0036872597 1.5665166e-38 289 243
-0.036872596 0.70099998 -0.0036872597 1.5574052e-38 290 243
-0.035592664 0.69999999 -0.0036819996 1.5574052e-38 291 243
-0.034267146 0.69800001 -0.0036714801 1.5850276e-38 292 243
-0.033043321 0.69800001 -0.0036714801 1.5666245e-38 293 243
-0.031819493 0.69800001 -0.0036714801 1.5575121e-38 294 243
-0.030551834 0.69700003 -0.00366622 1.5482926e-38 295 243
-0.02932976 0.69700003 -0.00366622 1.5298895e-38 296 243
-0.028107686 0.69700003 -0.00366622 1.5114145e-38 297 243
-0.026847038 0.69599998 -0.0036609597 1.5204541e-38 298 243
-0.025626717 0.69599998 -0.0036609597 1.5112345e-38 299 243
-0.0244064 0.69599998 -0.0036609597 1.5019428e-38 300 243
-0.023219392 0.69700003 -0.00366622 1.5019428e-38 301 243
-0.02199732 0.69700003 -0.00366622 1.5019781e-38 302 243
-0.020805053 0.69800001 -0.0036714801 1.4927586e-38 303 243
-0.019581227 0.69800001 -0.0036714801 1.4926868e-38 304 243
-0.018331099 0.69700003 -0.00366622 1.5019065e-38 305 243
-0.017109027 0.69700003 -0.00366622 1.4927588e-38 306 243
-0.015886955 0.69700003 -0.00366622 1.4835033e-38 307 243
-0.014643839 0.69599998 -0.0036609597 1.4742837e-38 308 243
-0.013423519 0.69599998 -0.0036609597 1.4558806e-38 309 243
-0.0122032 0.69599998 -0.0036609597 1.437443e-38 310 243
-0.010982879 0.69599998 -0.0036609597 1.4190399e-38 311 243
-0.0097765867 0.69700003 -0.00366622 1.4097494e-38 312 243
-0.0085545136 0.69700003 -0.00366622 1.4005299e-38 313 243
-0.0073429602 0.69800001 -0.0036714801 1.3913101e-38 314 243
-0.006119133 0.69800001 -0.0036714801 1.372871e-38 315 243
-0.0049093333 0.69999999 -0.0036819996 1.3727991e-38 316 243
-0.0036819996 0.69999999 -0.0036819996 1.3635437e-38 317 243
-0.0024546667 0.69999999 -0.0036819996 1.3542891e-38 318 243
-0.0012290865 0.70099998 -0.0036872597 1.3266663e-38 319 243
0 0.70099998 -0.0036872597 1.3174833e-38 320 243
0.0012325933 0.70300001 -0.0036977797 1.3082637e-38 321 243
0.0024651866 0.70300001 -0.0036977797 1.2713856e-38 322 243
0.0037030398 0.704 -0.0037030398 1.2621661e-38 323 243
0.0049373866 0.704 -0.0037030398 1.2621663e-38 324 243
0.0061717331 0.704 -0.0037030398 1.2529108e-38 325 243
0.0074271196 0.70599997 -0.0037135598 1.2345442e-38 326 243
0.008677247 0.70700002 -0.0037188199 1.2345442e-38 327 243
0.0099308798 0.708 -0.00372408 1.2436562e-38 328 243
0.011203799 0.70999998 -0.0037345996 1.2436562e-38 329 243
0.0124662 0.71100003 -0.0037398601 1.2344013e-38 330 243
0.01377068 0.71399999 -0.0037556398 1.2436209e-38 331 243
0.015022559 0.71399999 -0.0037556398 1.2344396e-38 332 243
0.016320027 0.71600002 -0.00376616 1.2436591e-38 333 243
0.017575413 0.71600002 -0.00376616 1.1886345e-38 334 243
-0.057597004 0.73000002 -0.0051197335 1.484674e-38 275 244
-0.055931333 0.72500002 -0.0050846669 1.5305548e-38 276 244
-0.054433983 0.722 -0.0050636264 1.4567982e-38 277 244
-0.053020801 0.72000003 -0.0050496003 1.4101538e-38 278 244
-0.051542737 0.71700001 -0.0050285598 1.3732757e-38 279 244
-0.050215468 0.71600002 -0.0050215465 1.5020195e-38 280 244
-0.048754938 0.713 -0.0050005065 1.511239e-38 281 244
-0.047371563 0.71100003 -0.0049864799 1.5205302e-38 282 244
-0.046060063 0.70999998 -0.0049794666 1.5482249e-38 283 244
-0.044688959 0.708 -0.0049654399 1.5757754e-38 284 244
-0.043324865 0.70599997 -0.0049514128 1.5573361e-38 285 244
-0.041967787 0.704 -0.0049373866 1.5664818e-38 286 244
-0.040675577 0.70300001 -0.0049303733 1.5480429e-38 287 244
-0.039330769 0.70099998 -0.0049163462 1.5389302e-38 288 244
-0.038101684 0.70099998 -0.0049163462 1.5481857e-38 289 244
-0.036819998 0.69999999 -0.0049093333 1.5573699e-38 290 244
-0.035592664 0.69999999 -0.0049093333 1.5849927e-38 291 244
-0.034267146 0.69800001 -0.0048953067 1.5575501e-38 292 244
-0.033043321 0.69800001 -0.0048953067 1.5759532e-38 293 244
-0.031819493 0.69800001 -0.0048953067 1.5575498e-38 294 244
-0.030551834 0.69700003 -0.0048882933 1.5483303e-38 295 244
-0.02932976 0.69700003 -0.0048882933 1.5482222e-38 296 244
-0.028107686 0.69700003 -0.0048882933 1.5205637e-38 297 244
-0.026847038 0.69599998 -0.0048812795 1.529639e-38 298 244
-0.025626717 0.69599998 -0.0048812795 1.5111998e-38 299 244
-0.0244064 0.69599998 -0.0048812795 1.5111629e-38 300 244
-0.023219392 0.69700003 -0.0048882933 1.5019434e-38 301 244
-0.02199732 0.69700003 -0.0048882933 1.5019428e-38 302 244
-0.020775247 0.69700003 -0.0048882933 1.5019428e-38 303 244
-0.019553173 0.69700003 -0.0048882933 1.4743917e-38 304 244
-0.018331099 0.69700003 -0.0048882933 1.465172e-38 305 244
-0.017109027 0.69700003 -0.0048882933 1.4652076e-38 306 244
-0.015864158 0.69599998 -0.0048812795 1.4467326e-38 307 244
-0.014643839 0.69599998 -0.0048812795 1.4558803e-38 308 244
-0.013423519 0.69599998 -0.0048812795 1.4466607e-38 309 244
-0.0122032 0.69599998 -0.0048812795 1.4190396e-38 310 244
-0.010982879 0.69599998 -0.0048812795 1.40982e-38 311 244
-0.0097765867 0.69700003 -0.0048882933 1.4005299e-38 312 244
-0.0085545136 0.69700003 -0.0048882933 1.4005299e-38 313 244
-0.0073429602 0.69800001 -0.0048953067 1.3820906e-38 314 244
-0.006119133 0.69800001 -0.0048953067 1.372871e-38 315 244
-0.0048953067 0.69800001 -0.0048953067 1.354432e-38 316 244
-0.0036819996 0.69999999 -0.0049093333 1.3359929e-38 317 244
-0.0024546667 0.69999999 -0.0049093333 1.3267382e-38 318 244
-0.0012273333 0.69999999 -0.0049093333 1.3082632e-38 319 244
0 0.69999999 -0.0049093333 1.2990083e-38 320 244
0.0012290865 0.70099998 -0.0049163462 1.2806052e-38 321 244
0.0024581731 0.70099998 -0.0049163462 1.2804973e-38 322 244
0.0036977797 0.70300001 -0.0049303733 1.2804973e-38 323 244
0.0049373866 0.704 -0.0049373866 1.2529108e-38 324 244
0.0061717331 0.704 -0.0049373866 1.2436912e-38 325 244
0.0074060797 0.704 -0.0049373866 1.2436562e-38 326 244
0.0086649731 0.70599997 -0.0049514128 1.2436562e-38 327 244
0.0099308798 0.708 -0.0049654399 1.2435846e-38 328 244
0.01121958 0.71100003 -0.0049864799 1.2435846e-38 329 244
0.0124662 0.71100003 -0.0049864799 1.2343294e-38 330 244
0.01377068 0.71399999 -0.0050075199 1.243549e-38 331 244
0.015022559 0.71399999 -0.0050075199 1.225184e-38 332 244
0.016320027 0.71600002 -0.0050215465 1.2344396e-38 333 244
0.017575413 0.71600002 -0.0050215465 1.170015e-38 334 244
-0.057439197 0.72799999 -0.0063821329 1.6591972e-38 275 245
-0.055931333 0.72500002 -0.0063558333 1.6590153e-38 276 245
-0.054433983 0.722 -0.0063295332 1.557636e-38 277 245
-0.053020801 0.72000003 -0.0063120001 1.5203192e-38 278 245
-0.051542737 0.71700001 -0.0062857 1.4742573e-38 279 245
-0.050215468 0.71600002 -0.0062769335 1.4835796e-38 280 245
-0.048754938 0.713 -0.0062506334 1.5020189e-38 281 245
-0.047371563 0.71100003 -0.0062330998 1.5204586e-38 282 245
-0.046060063 0.70999998 -0.0062243328 1.5296781e-38 283 245
-0.044625837 0.70700002 -0.0061980332 1.5297853e-38 284 245
-0.043324865 0.70599997 -0.0061892662 1.5205658e-38 285 245
-0.041967787 0.704 -0.0061717331 1.5205642e-38 286 245
-0.040675577 0.70300001 -0.0061629666 1.5205642e-38 287 245
-0.039330769 0.70099998 -0.0061454331 1.511416e-38 288 245
-0.038101684 0.70099998 -0.0061454331 1.5206356e-38 289 245
-0.036819998 0.69999999 -0.0061366665 1.5574068e-38 290 245
-0.035490975 0.69800001 -0.006119133 1.575846e-38 291 245
-0.034267146 0.69800001 -0.006119133 1.5759911e-38 292 245
-0.033043321 0.69800001 -0.006119133 1.6036139e-38 293 245
-0.031819493 0.69800001 -0.006119133 1.5852473e-38 294 245
-0.030551834 0.69700003 -0.0061103669 1.5668081e-38 295 245
-0.02932976 0.69700003 -0.0061103669 1.575846e-38 296 245
-0.028107686 0.69700003 -0.0061103669 1.5481872e-38 297 245
-0.026847038 0.69599998 -0.0061015999 1.5297109e-38 298 245
-0.025626717 0.69599998 -0.0061015999 1.4928327e-38 299 245
-0.0244064 0.69599998 -0.0061015999 1.5111273e-38 300 245
-0.023186078 0.69599998 -0.0061015999 1.5019078e-38 301 245
-0.02199732 0.69700003 -0.0061103669 1.4743923e-38 302 245
-0.020775247 0.69700003 -0.0061103669 1.4836119e-38 303 245
-0.019553173 0.69700003 -0.0061103669 1.4560246e-38 304 245
-0.0182522 0.69400001 -0.0060840664 1.4560246e-38 305 245
-0.017035386 0.69400001 -0.0060840664 1.4375856e-38 306 245
-0.015818574 0.69400001 -0.0060840664 1.4283661e-38 307 245
-0.01460176 0.69400001 -0.0060840664 1.4190749e-38 308 245
-0.013384946 0.69400001 -0.0060840664 1.4190749e-38 309 245
-0.012168133 0.69400001 -0.0060840664 1.3914172e-38 310 245
-0.01095132 0.69400001 -0.0060840664 1.3914172e-38 311 245
-0.0097625591 0.69599998 -0.0061015999 1.3729789e-38 312 245
-0.0085422397 0.69599998 -0.0061015999 1.3637594e-38 313 245
-0.00733244 0.69700003 -0.0061103669 1.3728354e-38 314 245
-0.006119133 0.69800001 -0.006119133 1.3544323e-38 315 245
-0.0048953067 0.69800001 -0.006119133 1.3452128e-38 316 245
-0.0036714801 0.69800001 -0.006119133 1.3267735e-38 317 245
-0.0024476533 0.69800001 -0.006119133 1.326666e-38 318 245
-0.0012273333 0.69999999 -0.0061366665 1.3174464e-38 319 245
0 0.69999999 -0.0061366665 1.2897524e-38 320 245
0.0012273333 0.69999999 -0.0061366665 1.2897524e-38 321 245
0.0024581731 0.70099998 -0.0061454331 1.2621663e-38 322 245
0.0036872597 0.70099998 -0.0061454331 1.2529108e-38 323 245
0.0049303733 0.70300001 -0.0061629666 1.2529113e-38 324 245
0.0061717331 0.704 -0.0061717331 1.2436559e-38 325 245
0.0074060797 0.704 -0.0061717331 1.2344369e-38 326 245
0.0086649731 0.70599997 -0.0061892662 1.2344369e-38 327 245
0.0099168532 0.70700002 -0.0061980332 1.2343647e-38 328 245
0.011203799 0.70999998 -0.0062243328 1.2343647e-38 329 245
0.012448666 0.70999998 -0.0062243328 1.234365e-38 330 245
0.013751393 0.713 -0.0062506334 1.234365e-38 331 245
0.015022559 0.71399999 -0.0062593995 1.225184e-38 332 245
0.016274439 0.71399999 -0.0062593995 1.225184e-38 333 245
0.017575413 0.71600002 -0.0062769335 1.142284e-38 334 245
-0.057439197 0.72799999 -0.0076585598 1.4827289e-38 275 246
-0.056162767 0.72799999 -0.0076585598 1.5469393e-38 276 246
-0.054886345 0.72799999 -0.0076585598 1.5469393e-38 277 246
-0.052726239 0.71600002 -0.00753232 1.4831875e-38 278 246
-0.051470853 0.71600002 -0.00753232 1.5016267e-38 279 246
-0.050215468 0.71600002 -0.00753232 1.4834709e-38 280 246
-0.048754938 0.713 -0.0075007593 1.5111294e-38 281 246
-0.047371563 0.71100003 -0.0074797203 1.5111292e-38 282 246
-0.046060063 0.70999998 -0.0074691991 1.5295684e-38 283 246
-0.044625837 0.70700002 -0.0074376399 1.529604e-38 284 246
-0.043324865 0.70599997 -0.0074271196 1.5203484e-38 285 246
-0.041967787 0.704 -0.0074060797 1.5021246e-38 286 246
-0.040675577 0.70300001 -0.0073955595 1.5021246e-38 287 246
-0.039330769 0.70099998 -0.0073745195 1.5388952e-38 288 246
-0.038101684 0.70099998 -0.0073745195 1.5481147e-38 289 246
-0.036819998 0.69999999 -0.0073639993 1.5665911e-38 290 246
-0.035490975 0.69800001 -0.0073429602 1.6126888e-38 291 246
-0.034267146 0.69800001 -0.0073429602 1.6313827e-38 292 246
-0.033043321 0.69800001 -0.0073429602 1.6682249e-38 293 246
-0.03177391 0.69700003 -0.00733244 1.6774098e-38 294 246
-0.030551834 0.69700003 -0.00733244 1.6128728e-38 295 246
-0.02932976 0.69700003 -0.00733244 1.5759207e-38 296 246
-0.028107686 0.69700003 -0.00733244 1.5390066e-38 297 246
-0.026847038 0.69599998 -0.0073219193 1.511274e-38 298 246
-0.025626717 0.69599998 -0.0073219193 1.5020545e-38 299 246
-0.0244064 0.69599998 -0.0073219193 1.5019449e-38 300 246
-0.023186078 0.69599998 -0.0073219193 1.4835059e-38 301 246
-0.02199732 0.69700003 -0.00733244 1.474357e-38 302 246
-0.020775247 0.69700003 -0.00733244 1.474357e-38 303 246
-0.019553173 0.69700003 -0.00733244 1.4559539e-38 304 246
-0.0182522 0.69400001 -0.0073008798 1.4283311e-38 305 246
-0.017035386 0.69400001 -0.0073008798 1.4283311e-38 306 246
-0.015818574 0.69400001 -0.0073008798 1.4098919e-38 307 246
-0.01460176 0.69400001 -0.0073008798 1.40982e-38 308 246
-0.013384946 0.69400001 -0.0073008798 1.4006005e-38 309 246
-0.012168133 0.69400001 -0.0073008798 1.3913452e-38 310 246
-0.01095132 0.69400001 -0.0073008798 1.3821256e-38 311 246
-0.0097625591 0.69599998 -0.0073219193 1.3728707e-38 312 246
-0.0085422397 0.69599998 -0.0073219193 1.3544676e-38 313 246
-0.00733244 0.69700003 -0.00733244 1.3452125e-38 314 246
-0.006119133 0.69800001 -0.0073429602 1.3452125e-38 315 246
-0.0048953067 0.69800001 -0.0073429602 1.3359932e-38 316 246
-0.0036714801 0.69800001 -0.0073429602 1.3267735e-38 317 246
-0.0024476533 0.69800001 -0.0073429602 1.2991515e-38 318 246
-0.0012273333 0.69999999 -0.0073639993 1.2714928e-38 319 246
0 0.69999999 -0.0073639993 1.2806408e-38 320 246
0.0012273333 0.69999999 -0.0073639993 1.2621658e-38 321 246
0.0024546667 0.69999999 -0.0073639993 1.2529464e-38 322 246
0.0036872597 0.70099998 -0.0073745195 1.2437268e-38 323 246
0.0049303733 0.70300001 -0.0073955595 1.2344719e-38 324 246
0.0061717331 0.704 -0.0074060797 1.2344719e-38 325 246
0.0074060797 0.704 -0.0074060797 1.2068139e-38 326 246
0.0086404262 0.704 -0.0074060797 1.2068139e-38 327 246
0.0099028256 0.70599997 -0.0074271196 1.2251452e-38 328 246
0.011203799 0.70999998 -0.0074691991 1.2251452e-38 329 246
0.012448666 0.70999998 -0.0074691991 1.2251452e-38 330 246
0.013751393 0.713 -0.0075007593 1.2251452e-38 331 246
0.015001519 0.713 -0.0075007593 1.2250392e-38 332 246
0.016274439 0.71399999 -0.0075112795 1.2527338e-38 333 246
0.017575413 0.71600002 -0.00753232 1.188021e-38 334 246
-0.053981625 0.71600002 -0.0087877065 1.5272379e-38 277 247
-0.052726239 0.71600002 -0.0087877065 1.482754e-38 278 247
-0.05132708 0.71399999 -0.0087631596 1.5749498e-38 279 247
-0.050075196 0.71399999 -0.0087631596 1.455957e-38 280 247
-0.048618179 0.71100003 -0.0087263398 1.4651765e-38 281 247
-0.047371563 0.71100003 -0.0087263398 1.5018746e-38 282 247
-0.045930319 0.708 -0.008689519 1.5110941e-38 283 247
-0.044625837 0.70700002 -0.008677247 1.4927623e-38 284 247
-0.043202132 0.704 -0.0086404262 1.4927623e-38 285 247
-0.041967787 0.704 -0.0086404262 1.4928695e-38 286 247
-0.040675577 0.70300001 -0.0086281532 1.5020892e-38 287 247
-0.039330769 0.70099998 -0.0086036054 1.5113812e-38 288 247
-0.038047329 0.69999999 -0.0085913334 1.5298204e-38 289 247
-0.036819998 0.69999999 -0.0085913334 1.5482612e-38 290 247
-0.035490975 0.69800001 -0.0085667865 1.6035786e-38 291 247
-0.034267146 0.69800001 -0.0085667865 1.6498587e-38 292 247
-0.033043321 0.69800001 -0.0085667865 1.6959565e-38 293 247
-0.03177391 0.69700003 -0.0085545136 1.6683351e-38 294 247
-0.030551834 0.69700003 -0.0085545136 1.6314208e-38 295 247
-0.02932976 0.69700003 -0.0085545136 1.5484432e-38 296 247
-0.028107686 0.69700003 -0.0085545136 1.4931258e-38 297 247
-0.026847038 0.69599998 -0.0085422397 1.5297135e-38 298 247
-0.025626717 0.69599998 -0.0085422397 1.4927992e-38 299 247
-0.0244064 0.69599998 -0.0085422397 1.4835781e-38 300 247
-0.023186078 0.69599998 -0.0085422397 1.465139e-38 301 247
-0.02199732 0.69700003 -0.0085545136 1.4468428e-38 302 247
-0.020775247 0.69700003 -0.0085545136 1.4375873e-38 303 247
-0.019553173 0.69700003 -0.0085545136 1.4375506e-38 304 247
-0.0182522 0.69400001 -0.0085176928 1.4283311e-38 305 247
-0.017035386 0.69400001 -0.0085176928 1.4191112e-38 306 247
-0.015818574 0.69400001 -0.0085176928 1.4098916e-38 307 247
-0.01460176 0.69400001 -0.0085176928 1.40982e-38 308 247
-0.013384946 0.69400001 -0.0085176928 1.3913449e-38 309 247
-0.012168133 0.69400001 -0.0085176928 1.3637591e-38 310 247
-0.01095132 0.69400001 -0.0085176928 1.3545395e-38 311 247
-0.0097625591 0.69599998 -0.0085422397 1.3545039e-38 312 247
-0.0085422397 0.69599998 -0.0085422397 1.3360648e-38 313 247
-0.00733244 0.69700003 -0.0085545136 1.3452125e-38 314 247
-0.006119133 0.69800001 -0.0085667865 1.3359929e-38 315 247
-0.0048953067 0.69800001 -0.0085667865 1.3268452e-38 316 247
-0.0036714801 0.69800001 -0.0085667865 1.2992224e-38 317 247
-0.0024476533 0.69800001 -0.0085667865 1.3082985e-38 318 247
-0.0012273333 0.69999999 -0.0085913334 1.2990789e-38 319 247
0 0.69999999 -0.0085913334 1.2805322e-38 320 247
0.0012273333 0.69999999 -0.0085913334 1.2805322e-38 321 247
0.0024546667 0.69999999 -0.0085913334 1.2529461e-38 322 247
0.0036819996 0.69999999 -0.0085913334 1.2437265e-38 323 247
0.0049163462 0.70099998 -0.0086036054 1.2343644e-38 324 247
0.0061629666 0.70300001 -0.0086281532 1.2343644e-38 325 247
0.0074060797 0.704 -0.0086404262 1.2068139e-38 326 247
0.0086404262 0.704 -0.0086404262 1.1975585e-38 327 247
0.0099028256 0.70599997 -0.0086649731 1.2068139e-38 328 247
0.011203799 0.70999998 -0.0087140659 1.2068139e-38 329 247
0.012448666 0.70999998 -0.0087140659 1.21589e-38 330 247
0.013751393 0.713 -0.0087508867 1.21589e-38 331 247
0.015001519 0.713 -0.0087508867 1.2067448e-38 332 247
0.016274439 0.71399999 -0.0087631596 1.2067448e-38 333 247
0.017575413 0.71600002 -0.0087877065 1.1696539e-38 334 247
-0.052726239 0.71600002 -0.010043093 1.5193796e-38 278 248
-0.05132708 0.71399999 -0.01001504 1.6023917e-38 279 248
-0.050075196 0.71399999 -0.01001504 1.4649611e-38 280 248
-0.048618179 0.71100003 -0.0099729598 1.4741807e-38 281 248
-0.047371563 0.71100003 -0.0099729598 1.501839e-38 282 248
-0.045930319 0.708 -0.0099308798 1.5110585e-38 283 248
-0.044625837 0.70700002 -0.0099168532 1.4835784e-38 284 248
-0.043202132 0.704 -0.0098747732 1.4927979e-38 285 248
-0.041967787 0.704 -0.0098747732 1.4929046e-38 286 248
-0.040559858 0.70099998 -0.0098326923 1.4929046e-38 287 248
-0.039330769 0.70099998 -0.0098326923 1.5296753e-38 288 248
-0.038047329 0.69999999 -0.0098186666 1.5481503e-38 289 248
-0.0367148 0.69800001 -0.0097906133 1.5575163e-38 290 248
-0.035490975 0.69800001 -0.0097906133 1.6036142e-38 291 248
-0.034267146 0.69800001 -0.0097906133 1.6314914e-38 292 248
-0.03299598 0.69700003 -0.0097765867 1.6683698e-38 293 248
-0.03177391 0.69700003 -0.0097765867 1.6499676e-38 294 248
-0.030551834 0.69700003 -0.0097765867 1.5854306e-38 295 248
-0.02932976 0.69700003 -0.0097765867 1.5484432e-38 296 248
-0.028107686 0.69700003 -0.0097765867 1.4931258e-38 297 248
-0.026847038 0.69599998 -0.0097625591 1.4837245e-38 298 248
-0.025626717 0.69599998 -0.0097625591 1.474505e-38 299 248
-0.0244064 0.69599998 -0.0097625591 1.4651036e-38 300 248
-0.023186078 0.69599998 -0.0097625591 1.4558841e-38 301 248
-0.02199732 0.69700003 -0.0097765867 1.4559541e-38 302 248
-0.020775247 0.69700003 -0.0097765867 1.4375509e-38 303 248
-0.019553173 0.69700003 -0.0097765867 1.4375859e-38 304 248
-0.018331099 0.69700003 -0.0097765867 1.4191468e-38 305 248
-0.017109027 0.69700003 -0.0097765867 1.4098916e-38 306 248
-0.015864158 0.69599998 -0.0097625591 1.4006721e-38 307 248
-0.014643839 0.69599998 -0.0097625591 1.3914169e-38 308 248
-0.013423519 0.69599998 -0.0097625591 1.3730137e-38 309 248
-0.012168133 0.69400001 -0.0097345067 1.3637588e-38 310 248
-0.01095132 0.69400001 -0.0097345067 1.3545392e-38 311 248
-0.0097625591 0.69599998 -0.0097625591 1.3452481e-38 312 248
-0.0085422397 0.69599998 -0.0097625591 1.3452481e-38 313 248
-0.00733244 0.69700003 -0.0097765867 1.3360282e-38 314 248
-0.006119133 0.69800001 -0.0097906133 1.3268085e-38 315 248
-0.0048953067 0.69800001 -0.0097906133 1.3267729e-38 316 248
-0.0036714801 0.69800001 -0.0097906133 1.3175534e-38 317 248
-0.0024476533 0.69800001 -0.0097906133 1.3082985e-38 318 248
-0.0012238267 0.69800001 -0.0097906133 1.2806758e-38 319 248
0 0.69999999 -0.0098186666 1.2714207e-38 320 248
0.0012273333 0.69999999 -0.0098186666 1.2529814e-38 321 248
0.0024546667 0.69999999 -0.0098186666 1.2437265e-38 322 248
0.0036819996 0.69999999 -0.0098186666 1.234507e-38 323 248
0.0049163462 0.70099998 -0.0098326923 1.206849e-38 324 248
0.0061629666 0.70300001 -0.0098607466 1.206849e-38 325 248
0.0074271196 0.70599997 -0.0099028256 1.215925e-38 326 248
0.0086649731 0.70599997 -0.0099028256 1.215925e-38 327 248
0.0099168532 0.70700002 -0.0099168532 1.2159253e-38 328 248
0.011203799 0.70999998 -0.0099589331 1.1975221e-38 329 248
0.0124662 0.71100003 -0.0099729598 1.2065984e-38 330 248
0.013751393 0.713 -0.010001013 1.215818e-38 331 248
0.015001519 0.713 -0.010001013 1.2158552e-38 332 248
0.016274439 0.71399999 -0.01001504 1.2342944e-38 333 248
0.017575413 0.71600002 -0.010043093 1.1972031e-38 334 248
0.0188308 0.71600002 -0.010043093 1.4461313e-38 335 248
-0.051470853 0.71600002 -0.01129848 1.5932462e-38 279 249
-0.049864799 0.71100003 -0.01121958 1.4558879e-38 280 249
-0.048549797 0.70999998 -0.011203799 1.4374487e-38 281 249
-0.047304932 0.70999998 -0.011203799 1.4835096e-38 282 249
-0.045930319 0.708 -0.01117224 1.4835096e-38 283 249
-0.044562716 0.70599997 -0.011140679 1.4927626e-38 284 249
-0.043202132 0.704 -0.011109119 1.4927626e-38 285 249
-0.041967787 0.704 -0.011109119 1.4836497e-38 286 249
-0.040559858 0.70099998 -0.011061779 1.4836497e-38 287 249
-0.039274666 0.69999999 -0.011045999 1.5113444e-38 288 249
-0.038047329 0.69999999 -0.011045999 1.5481866e-38 289 249
-0.0367148 0.69800001 -0.01101444 1.5299302e-38 290 249
-0.035490975 0.69800001 -0.01101444 1.575992e-38 291 249
-0.034267146 0.69800001 -0.01101444 1.6037979e-38 292 249
-0.03299598 0.69700003 -0.01099866 1.640676e-38 293 249
-0.03177391 0.69700003 -0.01099866 1.6037979e-38 294 249
-0.030551834 0.69700003 -0.01099866 1.5484805e-38 295 249
-0.02932976 0.69700003 -0.01099866 1.5299315e-38 296 249
-0.028107686 0.69700003 -0.01099866 1.4930893e-38 297 249
-0.026847038 0.69599998 -0.010982879 1.4929078e-38 298 249
-0.025626717 0.69599998 -0.010982879 1.4652131e-38 299 249
-0.0244064 0.69599998 -0.010982879 1.4651036e-38 300 249
-0.023186078 0.69599998 -0.010982879 1.4558841e-38 301 249
-0.02199732 0.69700003 -0.01099866 1.4008168e-38 302 249
-0.020775247 0.69700003 -0.01099866 1.4008168e-38 303 249
-0.019553173 0.69700003 -0.01099866 1.4007803e-38 304 249
-0.018331099 0.69700003 -0.01099866 1.3915607e-38 305 249
-0.01460176 0.69400001 -0.01095132 1.3730137e-38 308 249
-0.013384946 0.69400001 -0.01095132 1.3637941e-38 309 249
-0.012168133 0.69400001 -0.01095132 1.3545748e-38 310 249
-0.010982879 0.69599998 -0.010982879 1.3453194e-38 311 249
-0.0097625591 0.69599998 -0.010982879 1.3360645e-38 312 249
-0.0085422397 0.69599998 -0.010982879 1.326845e-38 313 249
-0.00733244 0.69700003 -0.01099866 1.3175534e-38 314 249
-0.006119133 0.69800001 -0.01101444 1.3175534e-38 315 249
-0.0048953067 0.69800001 -0.01101444 1.3175536e-38 316 249
-0.0036714801 0.69800001 -0.01101444 1.3083341e-38 317 249
-0.0024476533 0.69800001 -0.01101444 1.2806402e-38 318 249
-0.0012238267 0.69800001 -0.01101444 1.2714207e-38 319 249
0 0.69999999 -0.011045999 1.24387e-38 320 249
0.0012273333 0.69999999 -0.011045999 1.2346146e-38 321 249
0.0024546667 0.69999999 -0.011045999 1.2160682e-38 322 249
0.0036872597 0.70099998 -0.011061779 1.2160682e-38 323 249
0.0049303733 0.70300001 -0.01109334 1.2068134e-38 324 249
0.0061629666 0.70300001 -0.01109334 1.1975938e-38 325 249
0.0074060797 0.704 -0.011109119 1.1883741e-38 326 249
0.0086404262 0.704 -0.011109119 1.1883741e-38 327 249
0.0099168532 0.70700002 -0.011156459 1.1974865e-38 328 249
0.011203799 0.70999998 -0.011203799 1.1882669e-38 329 249
0.012448666 0.70999998 -0.011203799 1.1882672e-38 330 249
0.01371282 0.71100003 -0.01121958 1.1882672e-38 331 249
0.015001519 0.713 -0.011251139 1.1882689e-38 332 249
0.016274439 0.71399999 -0.011266919 1.2159276e-38 333 249
0.017526319 0.71399999 -0.011266919 1.1881635e-38 334 249
-0.051470853 0.71600002 -0.012553867 1.5565515e-38 279 250
-0.049794663 0.70999998 -0.012448666 1.4375621e-38 280 250
-0.048549797 0.70999998 -0.012448666 1.4468175e-38 281 250
-0.047171678 0.708 -0.0124136 1.4837303e-38 282 250
-0.045865446 0.70700002 -0.012396066 1.4468879e-38 283 250
-0.044562716 0.70599997 -0.012378532 1.483509e-38 284 250
-0.043202132 0.704 -0.012343466 1.483509e-38 285 250
-0.041967787 0.704 -0.012343466 1.4835778e-38 286 250
-0.040559858 0.70099998 -0.012290866 1.4928332e-38 287 250
-0.039274666 0.69999999 -0.012273333 1.5021246e-38 288 250
-0.038047329 0.69999999 -0.012273333 1.5205637e-38 289 250
-0.0367148 0.69800001 -0.012238266 1.5207101e-38 290 250
-0.035490975 0.69800001 -0.012238266 1.5391851e-38 291 250
-0.034267146 0.69800001 -0.012238266 1.5668823e-38 292 250
-0.03299598 0.69700003 -0.012220734 1.5853215e-38 293 250
-0.03177391 0.69700003 -0.012220734 1.575994e-38 294 250
-0.030551834 0.69700003 -0.012220734 1.5391516e-38 295 250
-0.02932976 0.69700003 -0.012220734 1.5206754e-38 296 250
-0.028107686 0.69700003 -0.012220734 1.4929807e-38 297 250
-0.026847038 0.69599998 -0.0122032 1.4836879e-38 298 250
-0.025626717 0.69599998 -0.0122032 1.4559932e-38 299 250
-0.0244064 0.69599998 -0.0122032 1.4375526e-38 300 250
-0.023186078 0.69599998 -0.0122032 1.4283329e-38 301 250
-0.021965759 0.69599998 -0.0122032 1.4008168e-38 302 250
-0.020745439 0.69599998 -0.0122032 1.3915973e-38 303 250
-0.019525118 0.69599998 -0.0122032 1.4098563e-38 304 250
-0.018304799 0.69599998 -0.0122032 1.3914172e-38 305 250
-0.01460176 0.69400001 -0.012168133 1.3637944e-38 308 250
-0.013384946 0.69400001 -0.012168133 1.3637944e-38 309 250
-0.012168133 0.69400001 -0.012168133 1.3545392e-38 310 250
-0.01095132 0.69400001 -0.012168133 1.3453197e-38 311 250
-0.0097625591 0.69599998 -0.0122032 1.3360645e-38 312 250
-0.0085422397 0.69599998 -0.0122032 1.326845e-38 313 250
-0.00733244 0.69700003 -0.012220734 1.3267732e-38 314 250
-0.006119133 0.69800001 -0.012238266 1.3175536e-38 315 250
-0.0048953067 0.69800001 -0.012238266 1.3082985e-38 316 250
-0.0036714801 0.69800001 -0.012238266 1.2806758e-38 317 250
-0.0024476533 0.69800001 -0.012238266 1.2714207e-38 318 250
-0.0012273333 0.69999999 -0.012273333 1.2714207e-38 319 250
0 0.69999999 -0.012273333 1.24387e-38 320 250
0.0012273333 0.69999999 -0.012273333 1.2161754e-38 321 250
0.0024546667 0.69999999 -0.012273333 1.2068487e-38 322 250
0.0036819996 0.69999999 -0.012273333 1.2068487e-38 323 250
0.0049163462 0.70099998 -0.012290866 1.2068134e-38 324 250
0.0061629666 0.70300001 -0.012325933 1.1883741e-38 325 250
0.0074060797 0.704 -0.012343466 1.1883022e-38 326 250
0.0086404262 0.704 -0.012343466 1.1883022e-38 327 250
0.0099168532 0.70700002 -0.012396066 1.1883025e-38 328 250
0.011203799 0.70999998 -0.012448666 1.1883025e-38 329 250
0.012448666 0.70999998 -0.012448666 1.1790473e-38 330 250
0.01371282 0.71100003 -0.0124662 1.1882669e-38 331 250
0.015001519 0.713 -0.012501267 1.1974882e-38 332 250
0.016320027 0.71600002 -0.012553867 1.2159631e-38 333 250
-0.049794663 0.70999998 -0.013693533 1.502353e-38 280 251
-0.048413038 0.708 -0.013654959 1.4746944e-38 281 251
-0.047171678 0.708 -0.013654959 1.4840568e-38 282 251
-0.045865446 0.70700002 -0.013635674 1.4287394e-38 283 251
-0.044562716 0.70599997 -0.013616386 1.4743993e-38 284 251
-0.043202132 0.704 -0.013577812 1.4190819e-38 285 251
-0.041967787 0.704 -0.013577812 1.4743582e-38 286 251
-0.040559858 0.70099998 -0.013519952 1.4835778e-38 287 251
-0.039330769 0.70099998 -0.013519952 1.4929048e-38 288 251
-0.038047329 0.69999999 -0.013500666 1.5113441e-38 289 251
-0.0367148 0.69800001 -0.013462093 1.5113812e-38 290 251
-0.035490975 0.69800001 -0.013462093 1.5298204e-38 291 251
-0.034267146 0.69800001 -0.013462093 1.52993e-38 292 251
-0.03299598 0.69700003 -0.013442807 1.5391495e-38 293 251
-0.03177391 0.69700003 -0.013442807 1.5390063e-38 294 251
-0.030551834 0.69700003 -0.013442807 1.5390063e-38 295 251
-0.02932976 0.69700003 -0.013442807 1.5021636e-38 296 251
-0.028107686 0.69700003 -0.013442807 1.4837245e-38 297 251
-0.026847038 0.69599998 -0.013423519 1.4835793e-38 298 251
-0.025626717 0.69599998 -0.013423519 1.4559567e-38 299 251
-0.0244064 0.69599998 -0.013423519 1.4100016e-38 300 251
-0.023186078 0.69599998 -0.013423519 1.4007462e-38 301 251
-0.021965759 0.69599998 -0.013423519 1.4007452e-38 302 251
-0.020745439 0.69599998 -0.013423519 1.3914898e-38 303 251
-0.019525118 0.69599998 -0.013423519 1.373086e-38 304 251
-0.018304799 0.69599998 -0.013423519 1.3638663e-38 305 251
-0.017084479 0.69599998 -0.013423519 1.3455348e-38 306 251
-0.015864158 0.69599998 -0.013423519 1.3363152e-38 307 251
-0.014643839 0.69599998 -0.013423519 1.3546464e-38 308 251
-0.013423519 0.69599998 -0.013423519 1.3362433e-38 309 251
-0.012168133 0.69400001 -0.013384946 1.3362077e-38 310 251
-0.01095132 0.69400001 -0.013384946 1.3269882e-38 311 251
-0.0097625591 0.69599998 -0.013423519 1.3359926e-38 312 251
-0.0085422397 0.69599998 -0.013423519 1.3359926e-38 313 251
-0.00733244 0.69700003 -0.013442807 1.3267735e-38 314 251
-0.006119133 0.69800001 -0.013462093 1.3082985e-38 315 251
-0.0048953067 0.69800001 -0.013462093 1.2807477e-38 316 251
-0.0036714801 0.69800001 -0.013462093 1.2715281e-38 317 251
-0.0024476533 0.69800001 -0.013462093 1.2623086e-38 318 251
-0.0012273333 0.69999999 -0.013500666 1.2438694e-38 319 251
0 0.69999999 -0.013500666 1.2255025e-38 320 251
0.0012273333 0.69999999 -0.013500666 1.1886244e-38 321 251
0.0024546667 0.69999999 -0.013500666 1.206884e-38 322 251
0.0036819996 0.69999999 -0.013500666 1.1976644e-38 323 251
