# .PCD v.7 - Point Cloud Data file format
FIELDS x y z rgb imX imY
SIZE 4 4 4 4 4 4
TYPE F F F F F F
COUNT 1 1 1 1 1 1
WIDTH 846
HEIGHT 1
VIEWPOINT 0 0 0 1 0 0 0
POINTS 846
DATA ascii
0.0066714329 0.76099998 -0.0066714329 1.6960323e-38 325 245
0.0080057196 0.76099998 -0.0066714329 1.7512033e-38 326 245
0.00931546 0.759 -0.0066538998 1.7604228e-38 327 245
0.01064624 0.759 -0.0066538998 1.7603862e-38 328 245
0.01194546 0.75700003 -0.0066363667 1.7880089e-38 329 245
0.013272733 0.75700003 -0.0066363667 1.7972288e-38 330 245
0.014561433 0.755 -0.0066188332 1.7880092e-38 331 245
0.01586416 0.75400001 -0.0066100666 1.7604231e-38 332 245
0.017186172 0.75400001 -0.0066100666 1.7696427e-38 333 245
0.018459093 0.75199997 -0.0065925326 1.7697143e-38 334 245
0.019724999 0.75 -0.006575 1.7789338e-38 335 245
0.021011947 0.74900001 -0.0065662335 1.8065206e-38 336 245
0.022325192 0.74900001 -0.0065662335 1.8249598e-38 337 245
0.023575317 0.74699998 -0.0065486995 1.8250667e-38 338 245
0.024885058 0.74699998 -0.0065486995 1.8250667e-38 339 245
0.026159734 0.74599999 -0.0065399334 1.8435048e-38 340 245
0.027467718 0.74599999 -0.0065399334 1.8527244e-38 341 245
0.028775707 0.74599999 -0.0065399334 1.8710556e-38 342 245
0.030003037 0.74400002 -0.0065223998 1.8710556e-38 343 245
0.031223357 0.74199998 -0.0065048663 1.898642e-38 344 245
0.032480497 0.741 -0.0064960998 1.898642e-38 345 245
0.033688545 0.73900002 -0.0064785667 1.8895655e-38 346 245
0.034936916 0.73799998 -0.0064697997 1.8803458e-38 347 245
0.036132693 0.736 -0.0064522666 1.8987123e-38 348 245
0.037270606 0.73299998 -0.0064259665 1.8894928e-38 349 245
0.038450599 0.73100001 -0.006408433 1.8801307e-38 350 245
0.039732285 0.73100001 -0.006408433 1.8709111e-38 351 245
0.041126184 0.73299998 -0.0064259665 1.7972635e-38 352 245
0.042469237 0.73400003 -0.006434733 1.7327266e-38 353 245
0.043756187 0.73400003 -0.006434733 1.686631e-38 354 245
-0.0040712398 0.77399999 -0.0081424797 1.7976703e-38 317 246
-0.0027141599 0.77399999 -0.0081424797 1.7606832e-38 318 246
-0.0013570799 0.77399999 -0.0081424797 1.7329886e-38 319 246
0 0.77399999 -0.0081424797 1.6868531e-38 320 246
0.0026896133 0.76700002 -0.00806884 1.6775951e-38 322 246
0.0040291594 0.76599997 -0.0080583189 1.6775951e-38 323 246
0.0053371461 0.76099998 -0.0080057196 1.6500414e-38 324 246
0.0066714329 0.76099998 -0.0080057196 1.6224187e-38 325 246
0.0080057196 0.76099998 -0.0080057196 1.668407e-38 326 246
0.00931546 0.759 -0.0079846792 1.649932e-38 327 246
0.01064624 0.759 -0.0079846792 1.6771204e-38 328 246
0.01194546 0.75700003 -0.0079636406 1.5849249e-38 329 246
0.013272733 0.75700003 -0.0079636406 1.5203119e-38 330 246
0.014561433 0.755 -0.0079425992 1.5018727e-38 331 246
0.01586416 0.75400001 -0.00793208 1.483723e-38 332 246
0.017140586 0.75199997 -0.0079110395 1.6496391e-38 333 246
0.018459093 0.75199997 -0.0079110395 1.6869533e-38 334 246
0.019724999 0.75 -0.00789 1.7146121e-38 335 246
0.020955838 0.74699998 -0.0078584393 1.7788619e-38 336 246
0.022265578 0.74699998 -0.0078584393 1.8157402e-38 337 246
0.023543758 0.74599999 -0.0078479191 1.8249582e-38 338 246
0.024851745 0.74599999 -0.0078479191 1.8433613e-38 339 246
0.026159734 0.74599999 -0.0078479191 1.8617995e-38 340 246
0.027394081 0.74400002 -0.0078268806 1.8617995e-38 341 246
0.02869856 0.74400002 -0.0078268806 1.8617995e-38 342 246
0.029922385 0.74199998 -0.0078058392 1.8802026e-38 343 246
0.03118128 0.741 -0.0077953199 1.916901e-38 344 246
0.032480497 0.741 -0.0077953199 1.9261565e-38 345 246
0.033642959 0.73799998 -0.0077637597 1.9077897e-38 346 246
0.034842238 0.736 -0.0077427197 1.9354125e-38 347 246
0.035985414 0.73299998 -0.0077111595 1.9079336e-38 348 246
0.037118066 0.73000002 -0.0076795998 1.8895305e-38 349 246
0.038398001 0.73000002 -0.0076795998 1.8710556e-38 350 246
0.039677933 0.73000002 -0.0076795998 1.8526165e-38 351 246
0.040957868 0.73000002 -0.0076795998 1.8249935e-38 352 246
0.042295661 0.73100001 -0.00769012 1.8065184e-38 353 246
0.043696571 0.73299998 -0.0077111595 1.751238e-38 354 246
0.044981763 0.73299998 -0.0077111595 1.7327987e-38 355 246
-0.0054423464 0.77600002 -0.009524107 1.6869234e-38 316 247
-0.0040712398 0.77399999 -0.0094995592 1.6593008e-38 317 247
-0.0027141599 0.77399999 -0.0094995592 1.6131654e-38 318 247
-0.0013553266 0.773 -0.0094872871 1.5394089e-38 319 247
0 0.773 -0.0094872871 1.5024565e-38 320 247
0.00135182 0.77100003 -0.0094627403 1.5024565e-38 321 247
0.0026896133 0.76700002 -0.0094136465 1.5670638e-38 322 247
0.0040291594 0.76599997 -0.0094013726 1.5947584e-38 323 247
0.0053581866 0.764 -0.0093768267 1.60387e-38 324 247
0.0066714329 0.76099998 -0.0093400059 1.60387e-38 325 247
0.0080057196 0.76099998 -0.0093400059 1.5853953e-38 326 247
0.00931546 0.759 -0.00931546 1.5669922e-38 327 247
0.01064624 0.759 -0.00931546 1.6036517e-38 328 247
0.01194546 0.75700003 -0.0092909131 1.5206398e-38 329 247
0.013272733 0.75700003 -0.0092909131 1.4836134e-38 330 247
0.014542146 0.75400001 -0.0092540924 1.4651384e-38 331 247
0.015822079 0.75199997 -0.0092295464 1.4008168e-38 332 247
0.017140586 0.75199997 -0.0092295464 1.4561342e-38 333 247
0.018409999 0.75 -0.0092049995 1.6131947e-38 334 247
0.019646099 0.74699998 -0.0091681797 1.6592925e-38 335 247
0.020955838 0.74699998 -0.0091681797 1.7328715e-38 336 247
0.022265578 0.74699998 -0.0091681797 1.7697496e-38 337 247
0.023480639 0.74400002 -0.0091313599 1.7607453e-38 338 247
0.02478512 0.74400002 -0.0091313599 1.7699648e-38 339 247
0.026089599 0.74400002 -0.0091313599 1.8250298e-38 340 247
0.027320439 0.74199998 -0.009106813 1.8250298e-38 341 247
0.028505694 0.73900002 -0.0090699932 1.8526165e-38 342 247
0.029801406 0.73900002 -0.0090699932 1.861836e-38 343 247
0.031055039 0.73799998 -0.0090577193 1.8893871e-38 344 247
0.032348998 0.73799998 -0.0090577193 1.8893871e-38 345 247
0.033460613 0.73400003 -0.0090086265 1.8986068e-38 346 247
0.034700219 0.73299998 -0.0089963535 1.9078264e-38 347 247
0.035887226 0.73100001 -0.0089718066 1.907862e-38 348 247
0.037118066 0.73000002 -0.0089595336 1.8986064e-38 349 247
0.038292799 0.72799999 -0.0089349858 1.907825e-38 350 247
0.039569225 0.72799999 -0.0089349858 1.88935e-38 351 247
0.040957868 0.73000002 -0.0089595336 1.8892055e-38 352 247
0.0422378 0.73000002 -0.0089595336 1.8799858e-38 353 247
0.043517731 0.73000002 -0.0089595336 1.8340685e-38 354 247
0.044674929 0.72799999 -0.0089349858 1.7787511e-38 355 247
0.045888241 0.727 -0.0089227129 1.7419117e-38 356 247
0.047033165 0.72500002 -0.0088981669 1.778754e-38 357 247
0.048304334 0.72500002 -0.0088981669 1.7513172e-38 358 247
-0.0068029333 0.77600002 -0.010884693 1.3826043e-38 315 248
-0.0054423464 0.77600002 -0.010884693 1.4195533e-38 316 248
-0.0040712398 0.77399999 -0.01085664 1.4195533e-38 317 248
-0.0027141599 0.77399999 -0.01085664 1.4286633e-38 318 248
-0.0013553266 0.773 -0.010842613 1.4562861e-38 319 248
0 0.773 -0.010842613 1.493272e-38 320 248
0.0013483133 0.76899999 -0.010786506 1.5209666e-38 321 248
0.0026896133 0.76700002 -0.010758453 1.5026716e-38 322 248
0.0040291594 0.76599997 -0.010744425 1.4934521e-38 323 248
0.0053581866 0.764 -0.010716373 1.5300782e-38 324 248
0.0066714329 0.76099998 -0.010674292 1.5300782e-38 325 248
0.0080057196 0.76099998 -0.010674292 1.5300782e-38 326 248
0.00931546 0.759 -0.01064624 1.5300782e-38 327 248
0.010618187 0.75700003 -0.010618187 1.5485161e-38 328 248
0.011913899 0.755 -0.010590133 1.5300411e-38 329 248
0.013237666 0.755 -0.010590133 1.5298243e-38 330 248
0.014542146 0.75400001 -0.010576107 1.5113852e-38 331 248
0.015822079 0.75199997 -0.010548052 1.456175e-38 332 248
0.017095 0.75 -0.01052 1.4838696e-38 333 248
0.018385453 0.74900001 -0.010505973 1.5762094e-38 334 248
0.019646099 0.74699998 -0.010477919 1.6314909e-38 335 248
0.020927785 0.74599999 -0.010463892 1.6591868e-38 336 248
0.022235774 0.74599999 -0.010463892 1.7053207e-38 337 248
0.023417519 0.74199998 -0.010407786 1.760565e-38 338 248
0.024718491 0.74199998 -0.010407786 1.7790042e-38 339 248
0.025984399 0.741 -0.010393759 1.8157738e-38 340 248
0.027209979 0.73900002 -0.010365707 1.8157738e-38 341 248
0.028467119 0.73799998 -0.010351679 1.8249935e-38 342 248
0.029680425 0.736 -0.010323626 1.8433966e-38 343 248
0.030886721 0.73400003 -0.010295574 1.8617639e-38 344 248
0.032129832 0.73299998 -0.010281546 1.8894224e-38 345 248
0.033415023 0.73299998 -0.010281546 1.8893149e-38 346 248
0.034558199 0.73000002 -0.010239467 1.9077899e-38 347 248
0.035838135 0.73000002 -0.010239467 1.907862e-38 348 248
0.037118066 0.73000002 -0.010239467 1.9170815e-38 349 248
0.038292799 0.72799999 -0.010211413 1.9078617e-38 350 248
0.039569225 0.72799999 -0.010211413 1.8894224e-38 351 248
0.040845651 0.72799999 -0.010211413 1.8801307e-38 352 248
0.0422378 0.73000002 -0.010239467 1.8709111e-38 353 248
0.043398503 0.72799999 -0.010211413 1.8340329e-38 354 248
0.044613566 0.727 -0.010197386 1.8248133e-38 355 248
0.045761999 0.72500002 -0.010169334 1.7604932e-38 356 248
0.046903417 0.72299999 -0.01014128 1.7512736e-38 357 248
0.048171077 0.72299999 -0.01014128 1.6039446e-38 358 248
0.0492336 0.72000003 -0.010099201 1.6407868e-38 359 248
0.050496001 0.72000003 -0.010099201 1.733204e-38 360 248
-0.0068029333 0.77600002 -0.01224528 1.3733829e-38 315 249
-0.0054423464 0.77600002 -0.01224528 1.3918574e-38 316 249
-0.0040712398 0.77399999 -0.01221372 1.3918574e-38 317 249
-0.0027141599 0.77399999 -0.01221372 1.4011475e-38 318 249
-0.0013570799 0.77399999 -0.01221372 1.4287704e-38 319 249
0 0.773 -0.012197939 1.4840154e-38 320 249
0.0013483133 0.76899999 -0.012134819 1.5024904e-38 321 249
0.0026896133 0.76700002 -0.01210326 1.5117117e-38 322 249
0.0040291594 0.76599997 -0.012087479 1.5209312e-38 323 249
0.0053581866 0.764 -0.01205592 1.5117485e-38 324 249
0.0066714329 0.76099998 -0.012008579 1.5117485e-38 325 249
0.0080057196 0.76099998 -0.012008579 1.5209315e-38 326 249
0.00931546 0.759 -0.01197702 1.5209315e-38 327 249
0.010618187 0.75700003 -0.01194546 1.5392975e-38 328 249
0.011913899 0.755 -0.011913899 1.5300779e-38 329 249
0.013220133 0.75400001 -0.01189812 1.5575927e-38 330 249
0.014503572 0.75199997 -0.011866559 1.5575927e-38 331 249
0.01578 0.75 -0.011835 1.5484808e-38 332 249
0.017095 0.75 -0.011835 1.5392612e-38 333 249
0.018385453 0.74900001 -0.01181922 1.5670274e-38 334 249
0.019646099 0.74699998 -0.011787659 1.5946502e-38 335 249
0.020927785 0.74599999 -0.011771879 1.6406041e-38 336 249
0.022116546 0.74199998 -0.01170876 1.6958856e-38 337 249
0.023385961 0.741 -0.01169298 1.6961007e-38 338 249
0.024685178 0.741 -0.01169298 1.7421985e-38 339 249
0.025984399 0.741 -0.01169298 1.769713e-38 340 249
0.027173158 0.73799998 -0.011645639 1.7789326e-38 341 249
0.028312827 0.73400003 -0.011582521 1.8065187e-38 342 249
0.029559445 0.73299998 -0.011566739 1.8433969e-38 343 249
0.030844638 0.73299998 -0.011566739 1.8433966e-38 344 249
0.031998333 0.73000002 -0.011519399 1.8526162e-38 345 249
0.033278264 0.73000002 -0.011519399 1.8801673e-38 346 249
0.034463517 0.72799999 -0.01148784 1.8893868e-38 347 249
0.035739943 0.72799999 -0.01148784 1.8893868e-38 348 249
0.037016369 0.72799999 -0.01148784 1.907862e-38 349 249
0.038292799 0.72799999 -0.01148784 1.907897e-38 350 249
0.039569225 0.72799999 -0.01148784 1.8894219e-38 351 249
0.040845651 0.72799999 -0.01148784 1.8893856e-38 352 249
0.042122077 0.72799999 -0.01148784 1.8709106e-38 353 249
0.043398503 0.72799999 -0.01148784 1.8617266e-38 354 249
0.044613566 0.727 -0.01147206 1.8340679e-38 355 249
0.04563576 0.72299999 -0.01140894 1.7973339e-38 356 249
0.046838548 0.722 -0.01139316 1.7604916e-38 357 249
0.048104454 0.722 -0.01139316 1.7142877e-38 358 249
0.0492336 0.72000003 -0.011361601 1.6681899e-38 359 249
0.050496001 0.72000003 -0.011361601 1.5856159e-38 360 249
0.051758397 0.72000003 -0.011361601 1.7331648e-38 361 249
-0.0067853997 0.77399999 -0.013570799 1.3273573e-38 315 250
-0.0054283198 0.77399999 -0.013570799 1.3365768e-38 316 250
-0.0040712398 0.77399999 -0.013570799 1.3734192e-38 317 250
-0.0027141599 0.77399999 -0.013570799 1.3736346e-38 318 250
-0.0013553266 0.773 -0.013553266 1.4105489e-38 319 250
0 0.773 -0.013553266 1.4839801e-38 320 250
0.00135182 0.77100003 -0.013518199 1.4932356e-38 321 250
0.0026966266 0.76899999 -0.013483133 1.4841603e-38 322 250
0.0040291594 0.76599997 -0.013430533 1.5025634e-38 323 250
0.0053581866 0.764 -0.013395466 1.502564e-38 324 250
0.0066714329 0.76099998 -0.013342866 1.502564e-38 325 250
0.0079846792 0.759 -0.0133078 1.5117114e-38 326 250
0.0092909131 0.75700003 -0.013272733 1.5117114e-38 327 250
0.010590133 0.755 -0.013237666 1.5300426e-38 328 250
0.01189812 0.75400001 -0.013220133 1.5392981e-38 329 250
0.013220133 0.75400001 -0.013220133 1.5392978e-38 330 250
0.014503572 0.75199997 -0.013185065 1.5485173e-38 331 250
0.01578 0.75 -0.01315 1.5670271e-38 332 250
0.017072206 0.74900001 -0.013132467 1.5578075e-38 333 250
0.018336359 0.74699998 -0.013097399 1.6037251e-38 334 250
0.019619798 0.74599999 -0.013079867 1.6221644e-38 335 250
0.020815572 0.74199998 -0.013009733 1.6221641e-38 336 250
0.02208674 0.741 -0.0129922 1.6498587e-38 337 250
0.023385961 0.741 -0.0129922 1.6684417e-38 338 250
0.024685178 0.741 -0.0129922 1.705356e-38 339 250
0.025738932 0.73400003 -0.012869466 1.7604213e-38 340 250
0.026989058 0.73299998 -0.012851933 1.7880439e-38 341 250
0.028274251 0.73299998 -0.012851933 1.8248855e-38 342 250
0.029478792 0.73100001 -0.012816866 1.8433248e-38 343 250
0.030718399 0.73000002 -0.012799333 1.8525443e-38 344 250
0.031910665 0.72799999 -0.012764266 1.8525443e-38 345 250
0.033187091 0.72799999 -0.012764266 1.8617642e-38 346 250
0.034463517 0.72799999 -0.012764266 1.8801673e-38 347 250
0.035690852 0.727 -0.012746733 1.8893868e-38 348 250
0.036863834 0.72500002 -0.012711667 1.8986064e-38 349 250
0.038135 0.72500002 -0.012711667 1.8986417e-38 350 250
0.039406165 0.72500002 -0.012711667 1.8894221e-38 351 250
0.040789545 0.727 -0.012746733 1.8893856e-38 352 250
0.042064216 0.727 -0.012746733 1.880166e-38 353 250
0.043100435 0.72299999 -0.012676599 1.8709106e-38 354 250
0.044368099 0.72299999 -0.012676599 1.8432878e-38 355 250
0.045572639 0.722 -0.012659066 1.8157738e-38 356 250
0.046838548 0.722 -0.012659066 1.7880793e-38 357 250
0.048104454 0.722 -0.012659066 1.7787525e-38 358 250
0.0492336 0.72000003 -0.012624 1.7603132e-38 359 250
0.050496001 0.72000003 -0.012624 1.5854685e-38 360 250
0.051758397 0.72000003 -0.012624 1.594688e-38 361 250
0.053020801 0.72000003 -0.012624 1.558356e-38 362 250
-0.0054283198 0.77399999 -0.014927879 1.3089179e-38 316 251
-0.0040712398 0.77399999 -0.014927879 1.3365766e-38 317 251
-0.0027141599 0.77399999 -0.014927879 1.3459037e-38 318 251
-0.0013553266 0.773 -0.014908593 1.3735624e-38 319 251
0 0.773 -0.014908593 1.4380265e-38 320 251
0.0013553266 0.773 -0.014908593 1.4565015e-38 321 251
0.0026966266 0.76899999 -0.014831445 1.493272e-38 322 251
0.00403442 0.76700002 -0.014792874 1.5024916e-38 323 251
0.0053722127 0.76599997 -0.014773586 1.474941e-38 324 251
0.0066714329 0.76099998 -0.014677152 1.4841606e-38 325 251
0.0079846792 0.759 -0.014638579 1.5024921e-38 326 251
0.0092909131 0.75700003 -0.014600007 1.5024921e-38 327 251
0.010590133 0.755 -0.014561433 1.5208231e-38 328 251
0.01189812 0.75400001 -0.014542146 1.5300426e-38 329 251
0.013220133 0.75400001 -0.014542146 1.5484455e-38 330 251
0.014503572 0.75199997 -0.014503572 1.5668486e-38 331 251
0.01578 0.75 -0.014465 1.5760316e-38 332 251
0.017072206 0.74900001 -0.014445714 1.5852511e-38 333 251
0.018336359 0.74699998 -0.014407139 1.6128375e-38 334 251
0.019619798 0.74599999 -0.014387853 1.6220572e-38 335 251
0.020815572 0.74199998 -0.014310705 1.6221647e-38 336 251
0.02208674 0.741 -0.01429142 1.6221647e-38 337 251
0.023385961 0.741 -0.01429142 1.5947931e-38 338 251
0.024618553 0.73900002 -0.014252847 1.6408909e-38 339 251
0.025738932 0.73400003 -0.014156413 1.7144309e-38 340 251
0.026915418 0.73100001 -0.014098554 1.7512733e-38 341 251
0.028197108 0.73100001 -0.014098554 1.7880793e-38 342 251
0.029438468 0.73000002 -0.014079267 1.8157738e-38 343 251
0.030634239 0.72799999 -0.014040692 1.8433601e-38 344 251
0.031910665 0.72799999 -0.014040692 1.8433601e-38 345 251
0.033187091 0.72799999 -0.014040692 1.8709111e-38 346 251
0.03441618 0.727 -0.014021406 1.8801307e-38 347 251
0.035494477 0.72299999 -0.01394426 1.8893503e-38 348 251
0.03671129 0.722 -0.013924973 1.8985698e-38 349 251
0.037871998 0.72000003 -0.0138864 1.8894575e-38 350 251
0.039134402 0.72000003 -0.0138864 1.8894575e-38 351 251
0.040509012 0.722 -0.013924973 1.8893856e-38 352 251
0.041427758 0.71600002 -0.013809253 1.8893856e-38 353 251
0.042683143 0.71600002 -0.013809253 1.8709109e-38 354 251
0.044306733 0.722 -0.013924973 1.8709109e-38 355 251
0.045572639 0.722 -0.013924973 1.8249935e-38 356 251
0.0467088 0.72000003 -0.0138864 1.8065184e-38 357 251
0.0479712 0.72000003 -0.0138864 1.769748e-38 358 251
0.0492336 0.72000003 -0.0138864 1.7420535e-38 359 251
0.050496001 0.72000003 -0.0138864 1.7051761e-38 360 251
0.051758397 0.72000003 -0.0138864 1.6682618e-38 361 251
0.052799881 0.71700001 -0.013828539 1.5396254e-38 362 251
0.054057021 0.71700001 -0.013828539 1.650296e-38 363 251
-0.0040712398 0.77399999 -0.016284959 1.2262662e-38 317 252
-0.0027141599 0.77399999 -0.016284959 1.2905498e-38 318 252
-0.0013570799 0.77399999 -0.016284959 1.327392e-38 319 252
0 0.77399999 -0.016284959 1.3460835e-38 320 252
0.0013553266 0.773 -0.016263919 1.3921813e-38 321 252
0.0027106532 0.773 -0.016263919 1.4473192e-38 322 252
0.00403442 0.76700002 -0.01613768 1.4473192e-38 323 252
0.0053722127 0.76599997 -0.016116638 1.4564309e-38 324 252
0.0066714329 0.76099998 -0.016011439 1.4656504e-38 325 252
0.0079846792 0.759 -0.015969358 1.4749057e-38 326 252
0.0092909131 0.75700003 -0.015927281 1.4841253e-38 327 252
0.010590133 0.755 -0.015885198 1.5024565e-38 328 252
0.01189812 0.75400001 -0.01586416 1.5116761e-38 329 252
0.013220133 0.75400001 -0.01586416 1.5392272e-38 330 252
0.014503572 0.75199997 -0.015822079 1.5392272e-38 331 252
0.01578 0.75 -0.01578 1.5668133e-38 332 252
0.017072206 0.74900001 -0.01575896 1.5668133e-38 333 252
0.018336359 0.74699998 -0.015716879 1.5852517e-38 334 252
0.019619798 0.74599999 -0.015695838 1.6128745e-38 335 252
0.020815572 0.74199998 -0.015611678 1.5945786e-38 336 252
0.02208674 0.741 -0.01559064 1.6130177e-38 337 252
0.023385961 0.741 -0.01559064 1.5947934e-38 338 252
0.024618553 0.73900002 -0.01554856 1.6131965e-38 339 252
0.025703866 0.73299998 -0.015422319 1.6867364e-38 340 252
0.026878599 0.73000002 -0.0153592 1.7144309e-38 341 252
0.028158534 0.73000002 -0.0153592 1.7787878e-38 342 252
0.029357811 0.72799999 -0.01531712 1.8248855e-38 343 252
0.030592158 0.727 -0.015296079 1.8157733e-38 344 252
0.03186683 0.727 -0.015296079 1.8250288e-38 345 252
0.033141505 0.727 -0.015296079 1.8709109e-38 346 252
0.034179479 0.722 -0.015190879 1.8801304e-38 347 252
0.035347197 0.72000003 -0.0151488 1.8801307e-38 348 252
0.036558751 0.71899998 -0.01512776 1.8893503e-38 349 252
0.037714198 0.71700001 -0.015085679 1.8802023e-38 350 252
0.038808275 0.71399999 -0.015022559 1.8802023e-38 351 252
0.040060159 0.71399999 -0.015022559 1.8893853e-38 352 252
0.041427758 0.71600002 -0.01506464 1.8801657e-38 353 252
0.042563915 0.71399999 -0.015022559 1.898497e-38 354 252
0.043815799 0.71399999 -0.015022559 1.898497e-38 355 252
0.045446403 0.72000003 -0.0151488 1.8617266e-38 356 252
0.0467088 0.72000003 -0.0151488 1.8433234e-38 357 252
0.0479712 0.72000003 -0.0151488 1.8249205e-38 358 252
0.049165215 0.71899998 -0.01512776 1.797262e-38 359 252
0.050425861 0.71899998 -0.01512776 1.7696034e-38 360 252
0.05168651 0.71899998 -0.01512776 1.7142862e-38 361 252
0.052726239 0.71600002 -0.01506464 1.5855032e-38 362 252
0.053981625 0.71600002 -0.01506464 1.6131259e-38 363 252
0.055237014 0.71600002 -0.01506464 1.6134933e-38 364 252
0.0040449398 0.76899999 -0.017528072 1.3736343e-38 323 253
0.0053722127 0.76599997 -0.017459691 1.4287e-38 324 253
0.0066714329 0.76099998 -0.017345725 1.4471391e-38 325 253
0.0079846792 0.759 -0.017300138 1.5024202e-38 326 253
0.0092663663 0.755 -0.017208965 1.5024202e-38 327 253
0.010590133 0.755 -0.017208965 1.5024202e-38 328 253
0.01189812 0.75400001 -0.017186172 1.5024202e-38 329 253
0.013220133 0.75400001 -0.017186172 1.5483022e-38 330 253
0.014503572 0.75199997 -0.017140586 1.5575218e-38 331 253
0.01578 0.75 -0.017095 1.5758886e-38 332 253
0.017072206 0.74900001 -0.017072206 1.5943277e-38 333 253
0.018336359 0.74699998 -0.017026618 1.603511e-38 334 253
0.019619798 0.74599999 -0.017003827 1.6311338e-38 335 253
0.020815572 0.74199998 -0.016912652 1.6128742e-38 336 253
0.02208674 0.741 -0.016889861 1.6313492e-38 337 253
0.023322839 0.73900002 -0.016844273 1.6131249e-38 338 253
0.024418673 0.73299998 -0.016707512 1.6131249e-38 339 253
0.025633732 0.73100001 -0.016661927 1.6866648e-38 340 253
0.026878599 0.73000002 -0.016639132 1.7327266e-38 341 253
0.028081384 0.72799999 -0.016593546 1.7695678e-38 342 253
0.029357811 0.72799999 -0.016593546 1.7972625e-38 343 253
0.030592158 0.727 -0.016570752 1.8341398e-38 344 253
0.031647664 0.722 -0.016456785 1.8433954e-38 345 253
0.032913569 0.722 -0.016456785 1.8617266e-38 346 253
0.03403746 0.71899998 -0.016388407 1.8709462e-38 347 253
0.035298105 0.71899998 -0.016388407 1.8801657e-38 348 253
0.036457058 0.71700001 -0.016342819 1.8801657e-38 349 253
0.037503798 0.713 -0.016251646 1.8893856e-38 350 253
0.038753927 0.713 -0.016251646 1.8893856e-38 351 253
0.040060159 0.71399999 -0.016274439 1.8986051e-38 352 253
0.041138459 0.71100003 -0.01620606 1.8893856e-38 353 253
0.042385083 0.71100003 -0.01620606 1.8893856e-38 354 253
0.043754432 0.713 -0.016251646 1.880166e-38 355 253
0.045383278 0.71899998 -0.016388407 1.8525796e-38 356 253
0.046643924 0.71899998 -0.016388407 1.8433601e-38 357 253
0.04790457 0.71899998 -0.016388407 1.8433601e-38 358 253
0.049165215 0.71899998 -0.016388407 1.8248849e-38 359 253
0.0502856 0.71700001 -0.016342819 1.7422689e-38 360 253
0.051542737 0.71700001 -0.016342819 1.696171e-38 361 253
0.052726239 0.71600002 -0.016320027 1.6959575e-38 362 253
0.053981625 0.71600002 -0.016320027 1.640676e-38 363 253
0.055237014 0.71600002 -0.016320027 1.5213313e-38 364 253
0.056492399 0.71600002 -0.016320027 1.6965031e-38 365 253
0.0053722127 0.76599997 -0.018802745 1.3734548e-38 324 254
0.0066714329 0.76099998 -0.018680012 1.4011135e-38 325 254
0.0079846792 0.759 -0.01863092 1.4563593e-38 326 254
0.0092663663 0.755 -0.018532733 1.4839819e-38 327 254
0.010590133 0.755 -0.018532733 1.4655435e-38 328 254
0.01189812 0.75400001 -0.018508185 1.456324e-38 329 254
0.013220133 0.75400001 -0.018508185 1.4930946e-38 330 254
0.014503572 0.75199997 -0.018459093 1.4930946e-38 331 254
0.01578 0.75 -0.018409999 1.5207527e-38 332 254
0.017072206 0.74900001 -0.018385453 1.5299723e-38 333 254
0.018336359 0.74699998 -0.018336359 1.5577022e-38 334 254
0.019619798 0.74599999 -0.018311813 1.5669219e-38 335 254
0.020815572 0.74199998 -0.018213626 1.58536e-38 336 254
0.02208674 0.741 -0.018189078 1.6037991e-38 337 254
0.023165042 0.73400003 -0.018017253 1.60387e-38 338 254
0.024352046 0.73100001 -0.017943613 1.6130896e-38 339 254
0.025598666 0.73000002 -0.017919067 1.631564e-38 340 254
0.026804959 0.72799999 -0.017869972 1.6776618e-38 341 254
0.028081384 0.72799999 -0.017869972 1.7144675e-38 342 254
0.029317487 0.727 -0.017845426 1.7605653e-38 343 254
0.030508002 0.72500002 -0.017796334 1.834105e-38 344 254
0.031647664 0.722 -0.017722692 1.8433248e-38 345 254
0.032640055 0.71600002 -0.017575413 1.8525796e-38 346 254
0.033800758 0.71399999 -0.017526319 1.8525796e-38 347 254
0.035052639 0.71399999 -0.017526319 1.8617989e-38 348 254
0.036253672 0.713 -0.017501773 1.8617989e-38 349 254
0.037345998 0.70999998 -0.017428132 1.8618708e-38 350 254
0.038590867 0.70999998 -0.017428132 1.8618708e-38 351 254
0.039723519 0.708 -0.017379038 1.8802379e-38 352 254
0.040964879 0.708 -0.017379038 1.8802379e-38 353 254
0.042206239 0.708 -0.017379038 1.9077165e-38 354 254
0.043570329 0.70999998 -0.017428132 1.898497e-38 355 254
0.044878319 0.71100003 -0.01745268 1.8801654e-38 356 254
0.046514176 0.71700001 -0.017599959 1.8617263e-38 357 254
0.04777132 0.71700001 -0.017599959 1.8341401e-38 358 254
0.04902846 0.71700001 -0.017599959 1.8249205e-38 359 254
0.050215468 0.71600002 -0.017575413 1.7697831e-38 360 254
0.051470853 0.71600002 -0.017575413 1.7513439e-38 361 254
0.052726239 0.71600002 -0.017575413 1.7144304e-38 362 254
0.053830836 0.71399999 -0.017526319 1.6683324e-38 363 254
0.05508272 0.71399999 -0.017526319 1.5579184e-38 364 254
0.0563346 0.71399999 -0.017526319 1.6317107e-38 365 254
0.057586476 0.71399999 -0.017526319 1.6414409e-38 366 254
0.0066714329 0.76099998 -0.020014299 1.3550517e-38 325 255
0.0079846792 0.759 -0.0199617 1.3275735e-38 326 255
0.0092663663 0.755 -0.0198565 1.3552681e-38 327 255
0.010590133 0.755 -0.0198565 1.4377773e-38 328 255
0.01189812 0.75400001 -0.019830201 1.4285578e-38 329 255
0.013220133 0.75400001 -0.019830201 1.4561439e-38 330 255
0.014503572 0.75199997 -0.0197776 1.4561439e-38 331 255
0.01578 0.75 -0.019724999 1.4836581e-38 332 255
0.017026618 0.74699998 -0.019646099 1.5389753e-38 333 255
0.018311813 0.74599999 -0.019619798 1.5485539e-38 334 255
0.019567199 0.74400002 -0.019567199 1.5485539e-38 335 255
0.020815572 0.74199998 -0.0195146 1.5761037e-38 336 255
0.02208674 0.741 -0.019488299 1.6037626e-38 337 255
0.023133477 0.73299998 -0.019277899 1.6130174e-38 338 255
0.024318734 0.73000002 -0.019199001 1.6314205e-38 339 255
0.025598666 0.73000002 -0.019199001 1.6682618e-38 340 255
0.026804959 0.72799999 -0.0191464 1.6867011e-38 341 255
0.028042812 0.727 -0.019120099 1.7328341e-38 342 255
0.029317487 0.727 -0.019120099 1.7697483e-38 343 255
0.030255521 0.71899998 -0.018909698 1.8156656e-38 344 255
0.031384666 0.71600002 -0.0188308 1.8341048e-38 345 255
0.032503292 0.713 -0.018751899 1.8616916e-38 346 255
0.033658739 0.71100003 -0.0186993 1.8801307e-38 347 255
0.034905359 0.71100003 -0.0186993 1.8617989e-38 348 255
0.036101133 0.70999998 -0.018672999 1.8617989e-38 349 255
0.0372408 0.708 -0.0186204 1.8893853e-38 350 255
0.038427804 0.70700002 -0.018594101 1.8893853e-38 351 255
0.039611302 0.70599997 -0.018567799 1.8893853e-38 352 255
0.040849157 0.70599997 -0.018567799 1.8893853e-38 353 255
0.042146627 0.70700002 -0.018594101 1.8801657e-38 354 255
0.043386232 0.70700002 -0.018594101 1.8801657e-38 355 255
0.044688959 0.708 -0.0186204 1.8709106e-38 356 255
0.045930319 0.708 -0.0186204 1.861691e-38 357 255
0.047171678 0.708 -0.0186204 1.8433245e-38 358 255
0.048549797 0.70999998 -0.018672999 1.8341048e-38 359 255
0.049864799 0.71100003 -0.0186993 1.7789676e-38 360 255
0.051470853 0.71600002 -0.0188308 1.7605285e-38 361 255
0.052284397 0.70999998 -0.018672999 1.742054e-38 362 255
0.053378478 0.708 -0.0186204 1.6959562e-38 363 255
0.054619838 0.708 -0.0186204 1.6316361e-38 364 255
0.055861197 0.708 -0.0186204 1.5670991e-38 365 255
0.057102561 0.708 -0.0186204 1.5307309e-38 366 255
0.0079846792 0.759 -0.02129248 1.3090628e-38 326 256
0.0092663663 0.755 -0.021180267 1.3275019e-38 327 256
0.010590133 0.755 -0.021180267 1.3825319e-38 328 256
0.01189812 0.75400001 -0.021152213 1.3825319e-38 329 256
0.013220133 0.75400001 -0.021152213 1.3550164e-38 330 256
0.014503572 0.75199997 -0.021096105 1.3273217e-38 331 256
0.01578 0.75 -0.02104 1.34558e-38 332 256
0.017026618 0.74699998 -0.020955838 1.4285201e-38 333 256
0.018311813 0.74599999 -0.020927785 1.4656504e-38 334 256
0.019567199 0.74400002 -0.02087168 1.5117482e-38 335 256
0.020815572 0.74199998 -0.020815572 1.5301505e-38 336 256
0.02208674 0.741 -0.020787518 1.5670288e-38 337 256
0.02307036 0.73100001 -0.020506985 1.6130174e-38 338 256
0.024318734 0.73000002 -0.020478934 1.640676e-38 339 256
0.025528532 0.72799999 -0.020422826 1.6498953e-38 340 256
0.026768139 0.727 -0.020394772 1.6683345e-38 341 256
0.028042812 0.727 -0.020394772 1.7052114e-38 342 256
0.029236834 0.72500002 -0.020338668 1.7604929e-38 343 256
0.030255521 0.71899998 -0.020170346 1.7973341e-38 344 256
0.031165501 0.71100003 -0.01994592 1.8065537e-38 345 256
0.032366529 0.70999998 -0.019917866 1.8525796e-38 346 256
0.033516716 0.708 -0.01986176 1.8525796e-38 347 256
0.034708988 0.70700002 -0.019833706 1.8525793e-38 348 256
0.035948593 0.70700002 -0.019833706 1.8617989e-38 349 256
0.037135597 0.70599997 -0.019805651 1.8893856e-38 350 256
0.038373452 0.70599997 -0.019805651 1.8893856e-38 351 256
0.039499093 0.704 -0.019749546 1.8893853e-38 352 256
0.040733438 0.704 -0.019749546 1.8893853e-38 353 256
0.042087011 0.70599997 -0.019805651 1.9077165e-38 354 256
0.043324865 0.70599997 -0.019805651 1.898497e-38 355 256
0.044562716 0.70599997 -0.019805651 1.8800941e-38 356 256
0.04580057 0.70599997 -0.019805651 1.8708387e-38 357 256
0.047038425 0.70599997 -0.019805651 1.8341404e-38 358 256
0.048276275 0.70599997 -0.019805651 1.8248849e-38 359 256
0.049654398 0.708 -0.01986176 1.7789673e-38 360 256
0.050895758 0.708 -0.01986176 1.7697478e-38 361 256
0.052137118 0.708 -0.01986176 1.7328338e-38 362 256
0.053378478 0.708 -0.01986176 1.7052111e-38 363 256
0.054619838 0.708 -0.01986176 1.6685123e-38 364 256
0.055861197 0.708 -0.01986176 1.5947558e-38 365 256
0.057102561 0.708 -0.01986176 1.5304044e-38 366 256
0.00931546 0.759 -0.02262326 1.2906229e-38 327 257
0.010590133 0.755 -0.022504034 1.3365052e-38 328 257
0.011913899 0.755 -0.022504034 1.3549083e-38 329 257
0.013220133 0.75400001 -0.022474226 1.3273217e-38 330 257
0.014503572 0.75199997 -0.022414612 1.3181021e-38 331 257
0.015822079 0.75199997 -0.022414612 1.317849e-38 332 257
0.017026618 0.74699998 -0.022265578 1.3270686e-38 333 257
0.018311813 0.74599999 -0.022235774 1.3734901e-38 334 257
0.019567199 0.74400002 -0.022176161 1.4472466e-38 335 257
0.020815572 0.74199998 -0.022116546 1.5392627e-38 336 257
0.022116546 0.74199998 -0.022116546 1.5577019e-38 337 257
0.023038799 0.73000002 -0.021758866 1.5946505e-38 338 257
0.024252106 0.72799999 -0.021699252 1.6223092e-38 339 257
0.025528532 0.72799999 -0.021699252 1.6406757e-38 340 257
0.026768139 0.727 -0.021669446 1.659115e-38 341 257
0.028042812 0.727 -0.021669446 1.6776247e-38 342 257
0.029236834 0.72500002 -0.021609833 1.7329421e-38 343 257
0.029876797 0.70999998 -0.021162732 1.8157007e-38 344 257
0.031034 0.708 -0.021103119 1.8249202e-38 345 257
0.032229774 0.70700002 -0.021073313 1.8433954e-38 346 257
0.033422034 0.70599997 -0.021043506 1.8526149e-38 347 257
0.034659892 0.70599997 -0.021043506 1.8525793e-38 348 257
0.035897743 0.70599997 -0.021043506 1.8525793e-38 349 257
0.037030395 0.704 -0.020983893 1.8709106e-38 350 257
0.038264744 0.704 -0.020983893 1.880166e-38 351 257
0.039442986 0.70300001 -0.020954086 1.8985325e-38 352 257
0.040675577 0.70300001 -0.020954086 1.8985325e-38 353 257
0.041908171 0.70300001 -0.020954086 1.9076799e-38 354 257
0.043140765 0.70300001 -0.020954086 1.8984604e-38 355 257
0.04437336 0.70300001 -0.020954086 1.8800941e-38 356 257
0.04560595 0.70300001 -0.020954086 1.8708387e-38 357 257
0.046838548 0.70300001 -0.020954086 1.8341404e-38 358 257
0.048139516 0.704 -0.020983893 1.8248849e-38 359 257
0.049373865 0.704 -0.020983893 1.7790748e-38 360 257
0.050751984 0.70599997 -0.021043506 1.7421967e-38 361 257
0.051989835 0.70599997 -0.021043506 1.7237222e-38 362 257
0.053303085 0.70700002 -0.021073313 1.705283e-38 363 257
0.054542694 0.70700002 -0.021073313 1.6684049e-38 364 257
0.055782299 0.70700002 -0.021073313 1.640746e-38 365 257
0.057021905 0.70700002 -0.021073313 1.5855048e-38 366 257
0.010618187 0.75700003 -0.02389092 1.3088828e-38 328 258
0.01194546 0.75700003 -0.02389092 1.3181024e-38 329 258
0.013237666 0.755 -0.023827799 1.3365049e-38 330 258
0.014542146 0.75400001 -0.02379624 1.3365049e-38 331 258
0.015822079 0.75199997 -0.023733119 1.3364321e-38 332 258
0.017026618 0.74699998 -0.023575317 1.3088094e-38 333 258
0.018311813 0.74599999 -0.023543758 1.3087011e-38 334 258
0.019619798 0.74599999 -0.023543758 1.3916773e-38 335 258
0.020927785 0.74599999 -0.023543758 1.5208587e-38 336 258
0.021758866 0.73000002 -0.023038799 1.5577369e-38 337 258
0.023038799 0.73000002 -0.023038799 1.6038344e-38 338 258
0.024252106 0.72799999 -0.022975679 1.613054e-38 339 258
0.025528532 0.72799999 -0.022975679 1.6498955e-38 340 258
0.026768139 0.727 -0.022944121 1.6498955e-38 341 258
0.028042812 0.727 -0.022944121 1.6867364e-38 342 258
0.029317487 0.727 -0.022944121 1.7420538e-38 343 258
0.029876797 0.70999998 -0.022407599 1.7974413e-38 344 258
0.030990168 0.70700002 -0.022312919 1.8066609e-38 345 258
0.032184184 0.70599997 -0.022281358 1.8433234e-38 346 258
0.03332736 0.704 -0.022218239 1.8617266e-38 347 258
0.034512613 0.70300001 -0.02218668 1.8617266e-38 348 258
0.035745207 0.70300001 -0.02218668 1.8617266e-38 349 258
0.036977798 0.70300001 -0.02218668 1.8800941e-38 350 258
0.038101684 0.70099998 -0.022123558 1.8984972e-38 351 258
0.039330769 0.70099998 -0.022123558 1.8801657e-38 352 258
0.040502001 0.69999999 -0.022091998 1.8801657e-38 353 258
0.041729331 0.69999999 -0.022091998 1.8800938e-38 354 258
0.042833932 0.69800001 -0.02202888 1.8800938e-38 355 258
0.04405776 0.69800001 -0.02202888 1.861691e-38 356 258
0.04541133 0.69999999 -0.022091998 1.8432878e-38 357 258
0.046638668 0.69999999 -0.022091998 1.8248849e-38 358 258
0.047934376 0.70099998 -0.022123558 1.8156654e-38 359 258
0.049163464 0.70099998 -0.022123558 1.788079e-38 360 258
0.050536323 0.70300001 -0.02218668 1.7604563e-38 361 258
0.051768921 0.70300001 -0.02218668 1.7237225e-38 362 258
0.053076904 0.704 -0.022218239 1.7052833e-38 363 258
0.054311249 0.704 -0.022218239 1.6684054e-38 364 258
0.055545598 0.704 -0.022218239 1.6499303e-38 365 258
0.056779943 0.704 -0.022218239 1.6131262e-38 366 258
0.058014292 0.704 -0.022218239 1.5762839e-38 367 258
0.014542146 0.75400001 -0.025118252 1.3089905e-38 331 259
0.017072206 0.74900001 -0.024951685 1.33654e-38 333 259
0.018385453 0.74900001 -0.024951685 1.2811132e-38 334 259
0.0196987 0.74900001 -0.024951685 1.327211e-38 335 259
0.02104 0.75 -0.024984999 1.5024904e-38 336 259
0.022355 0.75 -0.024984999 1.5670274e-38 337 259
0.023669999 0.75 -0.024984999 1.5762839e-38 338 259
0.029750559 0.70700002 -0.023552528 1.7881143e-38 344 259
0.030990168 0.70700002 -0.023552528 1.7973339e-38 345 259
0.032047424 0.70300001 -0.023419274 1.8341404e-38 346 259
0.03318534 0.70099998 -0.023352645 1.8433601e-38 347 259
0.034414422 0.70099998 -0.023352645 1.8433601e-38 348 259
0.035592664 0.69999999 -0.023319334 1.8433601e-38 349 259
0.036819998 0.69999999 -0.023319334 1.8709106e-38 350 259
0.037938625 0.69800001 -0.023252707 1.880166e-38 351 259
0.039162453 0.69800001 -0.023252707 1.8801654e-38 352 259
0.040386278 0.69800001 -0.023252707 1.8801654e-38 353 259
0.041610107 0.69800001 -0.023252707 1.8801654e-38 354 259
0.042772565 0.69700003 -0.023219392 1.8617263e-38 355 259
0.043994639 0.69700003 -0.023219392 1.8432878e-38 356 259
0.045281585 0.69800001 -0.023252707 1.8340682e-38 357 259
0.046505414 0.69800001 -0.023252707 1.8156301e-38 358 259
0.047729239 0.69800001 -0.023252707 1.7972269e-38 359 259
0.048953064 0.69800001 -0.023252707 1.7880077e-38 360 259
0.050320663 0.69999999 -0.023319334 1.7787881e-38 361 259
0.051621638 0.70099998 -0.023352645 1.7328341e-38 362 259
0.052850723 0.70099998 -0.023352645 1.7052114e-38 363 259
0.054234106 0.70300001 -0.023419274 1.6683698e-38 364 259
0.0554667 0.70300001 -0.023419274 1.6591503e-38 365 259
0.056699295 0.70300001 -0.023419274 1.6315643e-38 366 259
0.058014292 0.704 -0.023452586 1.5485524e-38 367 259
0.059248637 0.704 -0.023452586 1.5675014e-38 368 259
0.018385453 0.74900001 -0.026264934 1.3454716e-38 334 260
0.0196987 0.74900001 -0.026264934 1.3916053e-38 335 260
0.02104 0.75 -0.0263 1.5115315e-38 336 260
0.022355 0.75 -0.0263 1.5852881e-38 337 260
0.029455997 0.69999999 -0.024546666 1.7971897e-38 344 260
0.031910665 0.69999999 -0.024546666 1.852435e-38 346 260
0.033043321 0.69800001 -0.024476532 1.8616546e-38 347 260
0.034267146 0.69800001 -0.024476532 1.8433234e-38 348 260
0.035440128 0.69700003 -0.024441468 1.8433234e-38 349 260
0.036662199 0.69700003 -0.024441468 1.8709459e-38 350 260
0.037884273 0.69700003 -0.024441468 1.8709459e-38 351 260
0.039050236 0.69599998 -0.0244064 1.8801654e-38 352 260
0.040270556 0.69599998 -0.0244064 1.8801654e-38 353 260
0.041490879 0.69599998 -0.0244064 1.8709106e-38 354 260
0.042588469 0.69400001 -0.024336265 1.861691e-38 355 260
0.043805279 0.69400001 -0.024336265 1.843288e-38 356 260
0.045151837 0.69599998 -0.0244064 1.824813e-38 357 260
0.046438783 0.69700003 -0.024441468 1.8063736e-38 358 260
0.047660861 0.69700003 -0.024441468 1.7971541e-38 359 260
0.048882935 0.69700003 -0.024441468 1.7971546e-38 360 260
0.050176892 0.69800001 -0.024476532 1.7694959e-38 361 260
0.051400717 0.69800001 -0.024476532 1.7144307e-38 362 260
0.052624546 0.69800001 -0.024476532 1.7052111e-38 363 260
0.054234106 0.70300001 -0.024651866 1.65915e-38 364 260
0.0554667 0.70300001 -0.024651866 1.6499303e-38 365 260
0.056699295 0.70300001 -0.024651866 1.6223442e-38 366 260
0.058014292 0.704 -0.024686933 1.5578072e-38 367 260
0.059248637 0.704 -0.024686933 1.5397339e-38 368 260
0.060482983 0.704 -0.024686933 1.7794065e-38 369 260
0.030595668 0.69800001 -0.025700359 1.8431796e-38 345 261
0.031819493 0.69800001 -0.025700359 1.8340685e-38 346 261
0.03299598 0.69700003 -0.025663542 1.8340685e-38 347 261
0.034070771 0.69400001 -0.025553079 1.8432878e-38 348 261
0.035287585 0.69400001 -0.025553079 1.8432878e-38 349 261
0.036609598 0.69599998 -0.025626717 1.8709459e-38 350 261
0.037666857 0.69300002 -0.02551626 1.8801654e-38 351 261
0.03888192 0.69300002 -0.02551626 1.880201e-38 352 261
0.040154841 0.69400001 -0.025553079 1.880201e-38 353 261
0.041371655 0.69400001 -0.025553079 1.898497e-38 354 261
0.042527102 0.69300002 -0.02551626 1.8708743e-38 355 261
0.043742158 0.69300002 -0.02551626 1.852435e-38 356 261
0.045022093 0.69400001 -0.025553079 1.83396e-38 357 261
0.046238903 0.69400001 -0.025553079 1.8064092e-38 358 261
0.047455717 0.69400001 -0.025553079 1.7971897e-38 359 261
0.048812799 0.69599998 -0.025626717 1.7696031e-38 360 261
0.050033119 0.69599998 -0.025626717 1.7603836e-38 361 261
0.051327083 0.69700003 -0.025663542 1.7052464e-38 362 261
0.052549154 0.69700003 -0.025663542 1.6867714e-38 363 261
0.053848371 0.69800001 -0.025700359 1.6682971e-38 364 261
0.0550722 0.69800001 -0.025700359 1.649894e-38 365 261
0.056296028 0.69800001 -0.025700359 1.613053e-38 366 261
0.057931885 0.70300001 -0.025884461 1.5669192e-38 367 261
0.059164476 0.70300001 -0.025884461 1.539626e-38 368 261
0.06039707 0.70300001 -0.025884461 1.7424563e-38 369 261
0.031637147 0.69400001 -0.026769891 1.8432152e-38 346 262
0.032853961 0.69400001 -0.026769891 1.8616543e-38 347 262
0.034021679 0.69300002 -0.02673132 1.8709096e-38 348 262
0.035236739 0.69300002 -0.02673132 1.8709096e-38 349 262
0.036346599 0.69099998 -0.026654173 1.8709815e-38 350 262
0.037503798 0.69 -0.026615599 1.8709815e-38 351 262
0.038713597 0.69 -0.026615599 1.8801292e-38 352 262
0.0399234 0.69 -0.026615599 1.8801292e-38 353 262
0.041133199 0.69 -0.026615599 1.8708743e-38 354 262
0.042404365 0.69099998 -0.026654173 1.852435e-38 355 262
0.043552797 0.69 -0.026615599 1.8248486e-38 356 262
0.0447626 0.69 -0.026615599 1.7971541e-38 357 262
0.046039023 0.69099998 -0.026654173 1.7696385e-38 358 262
0.047387339 0.69300002 -0.02673132 1.7696385e-38 359 262
0.048602402 0.69300002 -0.02673132 1.7604189e-38 360 262
0.049817458 0.69300002 -0.02673132 1.7511635e-38 361 262
0.051106159 0.69400001 -0.026769891 1.7052464e-38 362 262
0.052322973 0.69400001 -0.026769891 1.6867714e-38 363 262
0.053771228 0.69700003 -0.026885614 1.6499659e-38 364 262
0.054993302 0.69700003 -0.026885614 1.6499659e-38 365 262
0.056215372 0.69700003 -0.026885614 1.6038332e-38 366 262
0.057767071 0.70099998 -0.027039904 1.5485158e-38 367 262
0.058996156 0.70099998 -0.027039904 1.5027827e-38 368 262
0.031591557 0.69300002 -0.027946379 1.8341035e-38 346 263
0.03280662 0.69300002 -0.027946379 1.8341035e-38 347 263
0.033923492 0.69099998 -0.027865725 1.8616543e-38 348 263
0.035135046 0.69099998 -0.027865725 1.870874e-38 349 263
0.0361888 0.68800002 -0.027744746 1.8800936e-38 350 263
0.037395094 0.68800002 -0.027744746 1.870874e-38 351 263
0.038601387 0.68800002 -0.027744746 1.8708743e-38 352 263
0.039749816 0.68699998 -0.027704418 1.8616546e-38 353 263
0.040954359 0.68699998 -0.027704418 1.8432152e-38 354 263
0.042097531 0.68599999 -0.027664091 1.7971174e-38 355 263
0.043300316 0.68599999 -0.027664091 1.7695313e-38 356 263
0.044567976 0.68699998 -0.027704418 1.7695313e-38 357 263
0.045772515 0.68699998 -0.027704418 1.760348e-38 358 263
0.047182199 0.69 -0.027825398 1.7511284e-38 359 263
0.04846213 0.69099998 -0.027865725 1.7511637e-38 360 263
0.049673684 0.69099998 -0.027865725 1.7327606e-38 361 263
0.051032521 0.69300002 -0.027946379 1.6960268e-38 362 263
0.05224758 0.69300002 -0.027946379 1.6867714e-38 363 263
0.053539783 0.69400001 -0.027986705 1.6316347e-38 364 263
0.054756597 0.69400001 -0.027986705 1.6223792e-38 365 263
0.055973411 0.69400001 -0.027986705 1.6038332e-38 366 263
0.057355035 0.69599998 -0.028067358 1.5669189e-38 367 263
0.058575355 0.69599998 -0.028067358 1.438353e-38 368 263
0.059795678 0.69599998 -0.028067358 1.5121095e-38 369 263
0.026307013 0.68199998 -0.02869856 1.7328341e-38 342 264
0.027543113 0.68300003 -0.028740639 1.7697483e-38 343 264
0.02878272 0.68400002 -0.02878272 1.824813e-38 344 264
0.031500384 0.69099998 -0.029077278 1.8432878e-38 346 264
0.032664597 0.69 -0.029035198 1.8432878e-38 347 264
0.033776212 0.68800002 -0.028951041 1.8616546e-38 348 264
0.034931656 0.68699998 -0.028908957 1.8708743e-38 349 264
0.036136195 0.68699998 -0.028908957 1.8800938e-38 350 264
0.037340738 0.68699998 -0.028908957 1.8708743e-38 351 264
0.03848917 0.68599999 -0.02886688 1.8708743e-38 352 264
0.039691959 0.68599999 -0.02886688 1.8616546e-38 353 264
0.040894743 0.68599999 -0.02886688 1.8432149e-38 354 264
0.042097531 0.68599999 -0.02886688 1.7510553e-38 355 264
0.043300316 0.68599999 -0.02886688 1.7417651e-38 356 264
0.044503104 0.68599999 -0.02886688 1.7786432e-38 357 264
0.045772515 0.68699998 -0.028908957 1.7510934e-38 358 264
0.046977058 0.68699998 -0.028908957 1.7510934e-38 359 264
0.048391998 0.69 -0.029035198 1.7327975e-38 360 264
0.049601797 0.69 -0.029035198 1.7143225e-38 361 264
0.050885238 0.69099998 -0.029077278 1.6684405e-38 362 264
0.052096792 0.69099998 -0.029077278 1.6592209e-38 363 264
0.053462639 0.69300002 -0.029161438 1.6223795e-38 364 264
0.054677699 0.69300002 -0.029161438 1.6131599e-38 365 264
0.055892758 0.69300002 -0.029161438 1.6037981e-38 366 264
0.057190225 0.69400001 -0.029203519 1.5761034e-38 367 264
0.058407038 0.69400001 -0.029203519 1.4105868e-38 368 264
0.059795678 0.69599998 -0.029287677 1.4382814e-38 369 264
0.061015997 0.69599998 -0.029287677 1.6320775e-38 370 264
0.022719691 0.68199998 -0.029894331 1.5212903e-38 339 265
0.023915464 0.68199998 -0.029894331 1.6498234e-38 340 265
0.025111238 0.68199998 -0.029894331 1.7051407e-38 341 265
0.026307013 0.68199998 -0.029894331 1.751237e-38 342 265
0.027543113 0.68300003 -0.029938167 1.7880793e-38 343 265
0.02878272 0.68400002 -0.029982001 1.8248133e-38 344 265
0.030069664 0.68599999 -0.030069664 1.8340329e-38 345 265
0.031272452 0.68599999 -0.030069664 1.8523994e-38 346 265
0.032475237 0.68599999 -0.030069664 1.861619e-38 347 265
0.033678025 0.68599999 -0.030069664 1.8616546e-38 348 265
0.034880809 0.68599999 -0.030069664 1.8708743e-38 349 265
0.036083598 0.68599999 -0.030069664 1.8709106e-38 350 265
0.037123326 0.68300003 -0.029938167 1.8709106e-38 351 265
0.038320854 0.68300003 -0.029938167 1.861619e-38 352 265
0.039518382 0.68300003 -0.029938167 1.861619e-38 353 265
0.040656291 0.68199998 -0.029894331 1.8248486e-38 354 265
0.041852064 0.68199998 -0.029894331 1.7787508e-38 355 265
0.043110959 0.68300003 -0.029938167 1.7602764e-38 356 265
0.044308487 0.68300003 -0.029938167 1.7602764e-38 357 265
0.045572639 0.68400002 -0.029982001 1.7327975e-38 358 265
0.046977058 0.68699998 -0.030113498 1.7235779e-38 359 265
0.048181597 0.68699998 -0.030113498 1.7052464e-38 360 265
0.049386136 0.68699998 -0.030113498 1.6867714e-38 361 265
0.050664321 0.68800002 -0.030157333 1.6592205e-38 362 265
0.052021399 0.69 -0.030244999 1.6500009e-38 363 265
0.053308345 0.69099998 -0.030288832 1.6131597e-38 364 265
0.054677699 0.69300002 -0.0303765 1.6131597e-38 365 265
0.055892758 0.69300002 -0.0303765 1.5670274e-38 366 265
0.057107817 0.69300002 -0.0303765 1.5577719e-38 367 265
0.058322877 0.69300002 -0.0303765 1.4656157e-38 368 265
0.059795678 0.69599998 -0.030507999 1.4563961e-38 369 265
0.061015997 0.69599998 -0.030507999 1.5951987e-38 370 265
0.022719691 0.68199998 -0.031090107 1.585323e-38 339 266
0.023915464 0.68199998 -0.031090107 1.6865564e-38 340 266
0.025111238 0.68199998 -0.031090107 1.7326903e-38 341 266
0.026307013 0.68199998 -0.031090107 1.7971176e-38 342 266
0.027543113 0.68300003 -0.031135695 1.83396e-38 343 266
0.02878272 0.68400002 -0.03118128 1.8248133e-38 344 266
0.029982001 0.68400002 -0.03118128 1.8340329e-38 345 266
0.031272452 0.68599999 -0.031272452 1.8523997e-38 346 266
0.032380559 0.68400002 -0.03118128 1.8616193e-38 347 266
0.033579841 0.68400002 -0.03118128 1.8617266e-38 348 266
0.034728274 0.68300003 -0.031135695 1.8617266e-38 349 266
0.035873197 0.68199998 -0.031090107 1.8800941e-38 350 266
0.037068974 0.68199998 -0.031090107 1.8708387e-38 351 266
0.038264744 0.68199998 -0.031090107 1.8616193e-38 352 266
0.039460517 0.68199998 -0.031090107 1.8616193e-38 353 266
0.040537067 0.68000001 -0.030998932 1.8707662e-38 354 266
0.041729335 0.68000001 -0.030998932 1.8338881e-38 355 266
0.043047838 0.68199998 -0.031090107 1.8154486e-38 356 266
0.044243611 0.68199998 -0.031090107 1.7878259e-38 357 266
0.045506012 0.68300003 -0.031135695 1.751164e-38 358 266
0.046771921 0.68400002 -0.03118128 1.732725e-38 359 266
0.048111461 0.68599999 -0.031272452 1.6960268e-38 360 266
0.049314249 0.68599999 -0.031272452 1.6867714e-38 361 266
0.050517038 0.68599999 -0.031272452 1.6499653e-38 362 266
0.051795214 0.68699998 -0.031318039 1.6407458e-38 363 266
0.053076908 0.68800002 -0.031363625 1.6131597e-38 364 266
0.054440998 0.69 -0.031454802 1.5947205e-38 365 266
0.055731449 0.69099998 -0.031500384 1.5853586e-38 366 266
0.056942999 0.69099998 -0.031500384 1.5668836e-38 367 266
0.058154557 0.69099998 -0.031500384 1.4931669e-38 368 266
0.059366114 0.69099998 -0.031500384 1.4562886e-38 369 266
0.060489997 0.69 -0.031454802 1.5950903e-38 370 266
0.023915464 0.68199998 -0.032285877 1.7049957e-38 340 267
0.025111238 0.68199998 -0.032285877 1.7787881e-38 341 267
0.026307013 0.68199998 -0.032285877 1.8338884e-38 342 267
0.027381808 0.67900002 -0.032143861 1.8338884e-38 343 267
0.028572321 0.67900002 -0.032143861 1.824813e-38 344 267
0.029894331 0.68199998 -0.032285877 1.8340685e-38 345 267
0.031090107 0.68199998 -0.032285877 1.8523994e-38 346 267
0.032333218 0.68300003 -0.032333218 1.8708387e-38 347 267
0.033530746 0.68300003 -0.032333218 1.8617266e-38 348 267
0.034677424 0.68199998 -0.032285877 1.8709462e-38 349 267
0.035767999 0.68000001 -0.032191198 1.8800941e-38 350 267
0.036960267 0.68000001 -0.032191198 1.8708387e-38 351 267
0.038152531 0.68000001 -0.032191198 1.8616195e-38 352 267
0.039286941 0.67900002 -0.032143861 1.8616195e-38 353 267
0.040477451 0.67900002 -0.032143861 1.8248133e-38 354 267
0.041667968 0.67900002 -0.032143861 1.8063742e-38 355 267
0.042921599 0.68000001 -0.032191198 1.7971541e-38 356 267
0.044113863 0.68000001 -0.032191198 1.7695313e-38 357 267
0.045306131 0.68000001 -0.032191198 1.7511637e-38 358 267
0.046635158 0.68199998 -0.032285877 1.7235411e-38 359 267
0.047901068 0.68300003 -0.032333218 1.6960268e-38 360 267
0.049170479 0.68400002 -0.032380559 1.6775517e-38 361 267
0.050517038 0.68599999 -0.032475237 1.640746e-38 362 267
0.051719822 0.68599999 -0.032475237 1.6315265e-38 363 267
