# .PCD v.7 - Point Cloud Data file format
FIELDS x y z rgb imX imY
SIZE 4 4 4 4 4 4
TYPE F F F F F F
COUNT 1 1 1 1 1 1
WIDTH 835
HEIGHT 1
VIEWPOINT 0 0 0 1 0 0 0
POINTS 835
DATA ascii
-0.024276651 0.602 -0.036942732 1.6358989e-38 297 275
-0.023221144 0.602 -0.036942732 1.6268592e-38 298 275
-0.02212882 0.60100001 -0.036881365 1.654482e-38 299 275
-0.021075066 0.60100001 -0.036881365 1.6453703e-38 300 275
-0.020021314 0.60100001 -0.036881365 1.6361508e-38 301 275
-0.01896756 0.60100001 -0.036881365 1.6545902e-38 302 275
-0.017913805 0.60100001 -0.036881365 1.6822128e-38 303 275
-0.016860053 0.60100001 -0.036881365 1.6548423e-38 304 275
-0.015806301 0.60100001 -0.036881365 1.6640618e-38 305 275
-0.014777092 0.602 -0.036942732 1.6642056e-38 306 275
-0.013721586 0.602 -0.036942732 1.6734252e-38 307 275
-0.012666079 0.602 -0.036942732 1.6643135e-38 308 275
-0.011610572 0.602 -0.036942732 1.6735332e-38 309 275
-0.010537533 0.60100001 -0.036881365 1.6736773e-38 310 275
-0.0094837798 0.60100001 -0.036881365 1.6736773e-38 311 275
-0.0063435598 0.60299999 -0.037004098 1.673857e-38 314 275
-0.0052862996 0.60299999 -0.037004098 1.6830767e-38 315 275
-0.0042360532 0.60399997 -0.037065465 1.6831486e-38 316 275
-0.00318756 0.60600001 -0.037188202 1.6923682e-38 317 275
-0.0021250399 0.60600001 -0.037188202 1.674037e-38 318 275
-0.00106252 0.60600001 -0.037188202 1.6832565e-38 319 275
0 0.60600001 -0.037188202 1.6832931e-38 320 275
0.00106252 0.60600001 -0.037188202 1.6832931e-38 321 275
0.0021320533 0.60799998 -0.037310928 1.6925127e-38 322 275
0.0031980798 0.60799998 -0.037310928 1.7017682e-38 323 275
0.029448988 0.64600003 -0.039642867 1.68358e-38 346 275
0.030581642 0.64600003 -0.039642867 1.6743604e-38 347 275
0.031714294 0.64600003 -0.039642867 1.6835083e-38 348 275
0.032745253 0.64399999 -0.03952013 1.6742888e-38 349 275
0.0338744 0.64399999 -0.03952013 1.674217e-38 350 275
0.045376267 0.64700001 -0.039704233 1.6741089e-38 360 275
0.046510674 0.64700001 -0.039704233 1.6741089e-38 361 275
0.047645077 0.64700001 -0.039704233 1.6832563e-38 362 275
0.049913891 0.64700001 -0.039704233 1.6922963e-38 364 275
0.0509694 0.64600003 -0.039642867 1.6922963e-38 365 275
0.052102055 0.64600003 -0.039642867 1.6831486e-38 366 275
0.059627358 0.65399998 -0.040133797 1.673857e-38 372 275
0.060774036 0.65399998 -0.040133797 1.6830767e-38 373 275
0.061920714 0.65399998 -0.040133797 1.6648168e-38 374 275
0.062874533 0.65200001 -0.040011063 1.6555973e-38 375 275
0.063035838 0.64200002 -0.0393974 1.6465212e-38 376 275
0.064061537 0.64099997 -0.039336029 1.6372658e-38 377 275
0.06518542 0.64099997 -0.039336029 1.6647452e-38 378 275
0.066516206 0.64300001 -0.039458767 1.646306e-38 379 275
0.067643598 0.64300001 -0.039458767 1.6646372e-38 380 275
0.06877099 0.64300001 -0.039458767 1.6646372e-38 381 275
0.069898389 0.64300001 -0.039458767 1.6738205e-38 382 275
0.071357161 0.64600003 -0.039642867 1.6738205e-38 383 275
0.080044925 0.64300001 -0.039458767 1.6554176e-38 391 275
0.08344464 0.66100001 -0.040563367 1.6646369e-38 392 275
0.084603593 0.66100001 -0.040563367 1.6646369e-38 393 275
0.08524356 0.65700001 -0.0403179 1.6554174e-38 394 275
0.086395502 0.65700001 -0.0403179 1.6646369e-38 395 275
0.087547436 0.65700001 -0.0403179 1.646306e-38 396 275
0.088429362 0.65499997 -0.040195163 1.6370864e-38 397 275
0.089577794 0.65499997 -0.040195163 1.6370861e-38 398 275
0.090449199 0.653 -0.04007243 1.6370861e-38 399 275
0.091453865 0.65200001 -0.040011063 1.6370142e-38 400 275
0.091886938 0.64700001 -0.039704233 1.6370142e-38 401 275
0.093021348 0.64700001 -0.039704233 1.6461259e-38 402 275
0.094155751 0.64700001 -0.039704233 1.6553455e-38 403 275
0.095290154 0.64700001 -0.039704233 1.6370142e-38 404 275
0.096424565 0.64700001 -0.039704233 1.6277947e-38 405 275
0.097558975 0.64700001 -0.039704233 1.6461262e-38 406 275
0.098693378 0.64700001 -0.039704233 1.6461262e-38 407 275
0.10075355 0.653 -0.04007243 1.6368707e-38 408 275
0.10189847 0.653 -0.04007243 1.6368707e-38 409 275
0.10320119 0.65399998 -0.040133797 1.6460543e-38 410 275
0.10450742 0.65499997 -0.040195163 1.6460543e-38 411 275
0.10565586 0.65499997 -0.040195163 1.6461256e-38 412 275
0.10680429 0.65499997 -0.040195163 1.6369061e-38 413 275
0.10828236 0.65700001 -0.0403179 1.6369061e-38 414 275
0.11404206 0.65700001 -0.0403179 1.6276866e-38 419 275
0.11519399 0.65700001 -0.0403179 1.6276864e-38 420 275
0.11634594 0.65700001 -0.0403179 1.6276864e-38 421 275
0.12000164 0.671 -0.041177034 1.609283e-38 422 275
0.12117812 0.671 -0.041177034 1.6276861e-38 423 275
0.1223546 0.671 -0.041177034 1.6276861e-38 424 275
0.12371519 0.67199999 -0.041238401 1.609283e-38 425 275
0.12489344 0.67199999 -0.041238401 1.581624e-38 426 275
0.12607168 0.67199999 -0.041238401 1.5263066e-38 427 275
0.12724991 0.67199999 -0.041238401 1.4617697e-38 428 275
0.12842816 0.67199999 -0.041238401 1.3511708e-38 429 275
0.12999213 0.67400002 -0.041361131 1.3137165e-38 430 275
0.13195235 0.67799997 -0.041606598 1.2952415e-38 431 275
0.13314112 0.67799997 -0.041606598 1.2397798e-38 432 275
0.13532051 0.68300003 -0.041913435 1.1754944e-38 433 275
-0.11900224 0.67199999 -0.042416636 1.2425884e-38 219 276
-0.11764866 0.671 -0.042353518 1.288218e-38 220 276
-0.11647218 0.671 -0.042353518 1.2605233e-38 221 276
-0.11529569 0.671 -0.042353518 1.2878577e-38 222 276
-0.11394913 0.67000002 -0.042290401 1.2510154e-38 223 276
-0.11277439 0.67000002 -0.042290401 1.2508716e-38 224 276
-0.11126653 0.66799998 -0.042164158 1.2140292e-38 225 276
-0.1100953 0.66799998 -0.042164158 1.2321814e-38 226 276
-0.10876101 0.667 -0.042101037 1.2229618e-38 227 276
-0.10710762 0.66399997 -0.041911677 1.2321091e-38 228 276
-0.10578386 0.66299999 -0.041848559 1.2044504e-38 229 276
-0.1044636 0.662 -0.041785441 1.195338e-38 230 276
-0.10283475 0.65899998 -0.041596077 1.1861184e-38 231 276
-0.10137072 0.65700001 -0.041469838 1.1584602e-38 232 276
-0.10021878 0.65700001 -0.041469838 1.1584602e-38 233 276
-0.098614477 0.65399998 -0.041280478 1.1400573e-38 234 276
-0.097318769 0.653 -0.041217357 1.1124345e-38 235 276
-0.096026562 0.65200001 -0.041154239 1.1215462e-38 236 276
-0.094446808 0.64899999 -0.040964879 1.1215462e-38 237 276
-0.093165122 0.648 -0.040901758 1.1215462e-38 238 276
-0.091886938 0.64700001 -0.04083864 1.1123266e-38 239 276
-0.090612262 0.64600003 -0.040775519 1.0939232e-38 240 276
-0.089202583 0.64399999 -0.04064928 1.0939232e-38 241 276
-0.088073432 0.64399999 -0.04064928 1.1029996e-38 242 276
-0.086809285 0.64300001 -0.040586159 1.09378e-38 243 276
-0.085548639 0.64200002 -0.040523041 1.0753414e-38 244 276
-0.084291495 0.64099997 -0.040459916 1.0753414e-38 245 276
-0.083037868 0.63999999 -0.040396798 1.0847753e-38 246 276
-0.081659749 0.63800001 -0.040270559 1.1400926e-38 247 276
-0.080414884 0.63700002 -0.040207442 1.0864236e-38 248 276
-0.079173513 0.63599998 -0.040144317 1.3445714e-38 249 276
-0.077935666 0.63499999 -0.040081199 9.8734088e-39 250 276
-0.076701313 0.634 -0.040018078 1.0057799e-38 251 276
-0.075351253 0.63200003 -0.039891839 1.0056008e-38 252 276
-0.07412567 0.63099998 -0.039828718 1.0885408e-38 253 276
-0.072903596 0.63 -0.0397656 1.2635723e-38 254 276
-0.071685031 0.62900001 -0.039702479 1.2820113e-38 255 276
-0.070469975 0.62800002 -0.039639361 1.2726492e-38 256 276
-0.069258414 0.62699997 -0.039576236 1.2357709e-38 257 276
-0.068159074 0.62699997 -0.039576236 1.1990709e-38 258 276
-0.066845834 0.625 -0.039449997 1.1713762e-38 259 276
-0.065644801 0.62400001 -0.03938688 1.1440014e-38 260 276
-0.064447269 0.62300003 -0.039323762 1.1255264e-38 261 276
-0.063151553 0.62099999 -0.039197516 1.1713689e-38 262 276
-0.061962798 0.62 -0.039134398 1.1713689e-38 263 276
-0.060875732 0.62 -0.039134398 1.1897753e-38 264 276
-0.059692234 0.61900002 -0.039071281 1.2173979e-38 265 276
-0.058512233 0.61799997 -0.039008155 1.2536706e-38 266 276
-0.057242822 0.616 -0.03888192 1.1615109e-38 267 276
-0.056071598 0.61500001 -0.038818799 1.1506782e-38 268 276
-0.054993298 0.61500001 -0.038818799 1.0123848e-38 269 276
-0.053827334 0.61400002 -0.038755678 1.2042721e-38 270 276
-0.052664869 0.61299998 -0.038692556 1.2134917e-38 271 276
-0.051590078 0.61299998 -0.038692556 1.2684854e-38 272 276
-0.050432879 0.61199999 -0.038629439 1.2684854e-38 273 276
-0.049279187 0.611 -0.038566317 1.3509219e-38 274 276
-0.048207901 0.611 -0.038566317 1.3509219e-38 275 276
-0.047059465 0.61000001 -0.0385032 1.3876563e-38 276 276
-0.045914538 0.60900003 -0.038440082 1.4244986e-38 277 276
-0.044846762 0.60900003 -0.038440082 1.4153867e-38 278 276
-0.043707091 0.60799998 -0.038376957 1.4061671e-38 279 276
-0.042641066 0.60799998 -0.038376957 1.5253015e-38 280 276
-0.041506659 0.60699999 -0.038313836 1.5621437e-38 281 276
-0.040375758 0.60600001 -0.038250718 1.5531024e-38 282 276
-0.03918349 0.60399997 -0.038124479 1.562322e-38 283 276
-0.038061358 0.60299999 -0.038061358 1.5989831e-38 284 276
-0.037004098 0.60299999 -0.038061358 1.580544e-38 285 276
-0.035887226 0.602 -0.03799824 1.6080229e-38 286 276
-0.034831718 0.602 -0.03799824 1.6080229e-38 287 276
-0.033776212 0.602 -0.03799824 1.6171709e-38 288 276
-0.032720707 0.602 -0.03799824 1.6171709e-38 289 276
-0.031665199 0.602 -0.03799824 1.6355387e-38 290 276
-0.030609693 0.602 -0.03799824 1.6355387e-38 291 276
-0.029554185 0.602 -0.03799824 1.635539e-38 292 276
-0.028546019 0.60299999 -0.038061358 1.6447585e-38 293 276
-0.027488759 0.60299999 -0.038061358 1.6447941e-38 294 276
-0.026431499 0.60299999 -0.038061358 1.6447941e-38 295 276
-0.025332158 0.602 -0.03799824 1.6540856e-38 296 276
-0.024236325 0.60100001 -0.037935119 1.6633053e-38 297 276
-0.023144001 0.60000002 -0.037871998 1.6358987e-38 298 276
-0.022092 0.60000002 -0.037871998 1.6451182e-38 299 276
-0.02104 0.60000002 -0.037871998 1.6451185e-38 300 276
-0.019988 0.60000002 -0.037871998 1.6358989e-38 301 276
-0.018935999 0.60000002 -0.037871998 1.6635219e-38 302 276
-0.017884001 0.60000002 -0.037871998 1.6819612e-38 303 276
-0.016832 0.60000002 -0.037871998 1.6545902e-38 304 276
-0.01578 0.60000002 -0.037871998 1.6822128e-38 305 276
-0.014752547 0.60100001 -0.037935119 1.6549139e-38 306 276
-0.013698793 0.60100001 -0.037935119 1.6549139e-38 307 276
-0.012624 0.60000002 -0.037871998 1.6641337e-38 308 276
-0.011552713 0.59899998 -0.037808876 1.6641337e-38 309 276
-0.010484933 0.59799999 -0.037745759 1.6734252e-38 310 276
-0.0094364397 0.59799999 -0.037745759 1.6826447e-38 311 276
-0.0083879465 0.59799999 -0.037745759 1.6736048e-38 312 276
-0.0073517263 0.59899998 -0.037808876 1.6828602e-38 313 276
-0.0063330396 0.602 -0.03799824 1.6829321e-38 314 276
-0.0052862996 0.60299999 -0.038061358 1.6921517e-38 315 276
-0.0042290399 0.60299999 -0.038061358 1.6738568e-38 316 276
-0.0031770398 0.60399997 -0.038124479 1.6738568e-38 317 276
-0.0021250399 0.60600001 -0.038250718 1.6647455e-38 318 276
-0.00106252 0.60600001 -0.038250718 1.6923682e-38 319 276
0 0.60600001 -0.038250718 1.683113e-38 320 276
0.0010590133 0.60399997 -0.038124479 1.6923685e-38 321 276
0.0021180266 0.60399997 -0.038124479 1.7016243e-38 322 276
0.0031980798 0.60799998 -0.038376957 1.7016243e-38 323 276
0.0509694 0.64600003 -0.040775519 1.6740014e-38 365 276
0.052102055 0.64600003 -0.040775519 1.6648174e-38 366 276
0.056960538 0.63700002 -0.040207442 1.6831486e-38 371 276
0.058077414 0.63700002 -0.040207442 1.6647455e-38 372 276
0.059194289 0.63700002 -0.040207442 1.6831486e-38 373 276
0.060311161 0.63700002 -0.040207442 1.6648168e-38 374 276
0.062874533 0.65200001 -0.041154239 1.6555973e-38 375 276
0.063035838 0.64200002 -0.040523041 1.6555973e-38 376 276
0.064061537 0.64099997 -0.040459916 1.6463776e-38 377 276
0.06518542 0.64099997 -0.040459916 1.6555258e-38 378 276
0.066516206 0.64300001 -0.040586159 1.6462704e-38 379 276
0.067538396 0.64200002 -0.040523041 1.655382e-38 380 276
0.068664044 0.64200002 -0.040523041 1.6646375e-38 381 276
0.069898389 0.64300001 -0.040586159 1.6828965e-38 382 276
0.0787948 0.64200002 -0.040523041 1.6554176e-38 390 276
0.080044925 0.64300001 -0.040586159 1.6646372e-38 391 276
0.081172317 0.64300001 -0.040586159 1.6463057e-38 392 276
0.082299709 0.64300001 -0.040586159 1.6370861e-38 393 276
0.083297364 0.64200002 -0.040523041 1.6370861e-38 394 276
0.084422998 0.64200002 -0.040523041 1.6463057e-38 395 276
0.085548639 0.64200002 -0.040523041 1.6463057e-38 396 276
0.08667428 0.64200002 -0.040523041 1.6370861e-38 397 276
0.087799914 0.64200002 -0.040523041 1.6278666e-38 398 276
0.090033658 0.64999998 -0.041027997 1.6278666e-38 399 276
0.090051197 0.64200002 -0.040523041 1.6370145e-38 400 276
0.091176845 0.64200002 -0.040523041 1.6277591e-38 401 276
0.092446253 0.64300001 -0.040586159 1.6277591e-38 402 276
0.093573645 0.64300001 -0.040586159 1.6277591e-38 403 276
0.095142886 0.64600003 -0.040775519 1.6461259e-38 404 276
0.096275538 0.64600003 -0.040775519 1.6461259e-38 405 276
0.097106606 0.64399999 -0.04064928 1.6368707e-38 406 276
0.098235756 0.64399999 -0.04064928 1.6368707e-38 407 276
0.099827781 0.64700001 -0.04083864 1.6367987e-38 408 276
0.10143033 0.64999998 -0.041027997 1.6367987e-38 409 276
0.1030434 0.653 -0.041217357 1.6460543e-38 410 276
0.10434788 0.65399998 -0.041280478 1.6552739e-38 411 276
0.10549456 0.65399998 -0.041280478 1.6461256e-38 412 276
0.10664123 0.65399998 -0.041280478 1.6369061e-38 413 276
0.10795272 0.65499997 -0.041343596 1.6369061e-38 414 276
0.1094343 0.65700001 -0.041469838 1.6369061e-38 415 276
0.11058623 0.65700001 -0.041469838 1.6460543e-38 416 276
0.11404206 0.65700001 -0.041469838 1.6276513e-38 419 276
0.11519399 0.65700001 -0.041469838 1.6276866e-38 420 276
0.11634594 0.65700001 -0.041469838 1.6276866e-38 421 276
0.12018047 0.67199999 -0.042416636 1.6277217e-38 422 276
0.12135871 0.67199999 -0.042416636 1.6277217e-38 423 276
0.12253696 0.67199999 -0.042416636 1.6093186e-38 424 276
0.12371519 0.67199999 -0.042416636 1.5355621e-38 425 276
0.12489344 0.67199999 -0.042416636 1.489104e-38 426 276
0.12607168 0.67199999 -0.042416636 1.3600301e-38 427 276
0.12724991 0.67199999 -0.042416636 1.3135364e-38 428 276
0.12842816 0.67199999 -0.042416636 1.2305961e-38 429 276
0.13153505 0.68199998 -0.043047838 1.1846779e-38 430 276
0.13234161 0.68000001 -0.042921599 1.2214124e-38 431 276
0.13353387 0.68000001 -0.042921599 1.2214132e-38 432 276
0.13532051 0.68300003 -0.043110959 1.230597e-38 433 276
-0.11764866 0.671 -0.043530006 1.2610271e-38 220 277
-0.11647218 0.671 -0.043530006 1.224149e-38 221 277
-0.11529569 0.671 -0.043530006 1.2607032e-38 222 277
-0.1141192 0.671 -0.043530006 1.2330444e-38 223 277
-0.11277439 0.67000002 -0.043465134 1.242012e-38 224 277
-0.11159967 0.67000002 -0.043465134 1.2051696e-38 225 277
-0.1100953 0.66799998 -0.043335386 1.2600198e-38 226 277
-0.10892407 0.66799998 -0.043335386 1.2323251e-38 227 277
-0.10743023 0.66600001 -0.043205637 1.2415081e-38 228 277
-0.10578386 0.66299999 -0.043011017 1.223069e-38 229 277
-0.1044636 0.662 -0.042946145 1.2229968e-38 230 277
-0.10314685 0.66100001 -0.042881273 1.2137773e-38 231 277
-0.1016793 0.65899998 -0.042751525 1.195338e-38 232 277
-0.10037132 0.65799999 -0.042686652 1.2045576e-38 233 277
-0.099066831 0.65700001 -0.04262178 1.1677516e-38 234 277
-0.097318769 0.653 -0.042362284 1.1493125e-38 235 277
-0.096026562 0.65200001 -0.042297412 1.1399854e-38 236 277
-0.094446808 0.64899999 -0.042102791 1.1399854e-38 237 277
-0.093308888 0.64899999 -0.042102791 1.130766e-38 238 277
-0.092028953 0.648 -0.042037919 1.112291e-38 239 277
-0.090752535 0.64700001 -0.041973047 1.1307295e-38 240 277
-0.08947961 0.64600003 -0.041908171 1.121474e-38 241 277
-0.088073432 0.64399999 -0.041778423 1.0939235e-38 242 277
-0.08694429 0.64399999 -0.041778423 1.0939235e-38 243 277
-0.085548639 0.64200002 -0.041648682 1.084633e-38 244 277
-0.084291495 0.64099997 -0.041583803 1.084633e-38 245 277
-0.083037868 0.63999999 -0.041518934 1.0939948e-38 246 277
-0.081659749 0.63800001 -0.041389186 1.1216894e-38 247 277
-0.080541119 0.63800001 -0.041389186 1.0588731e-38 248 277
-0.079298005 0.63700002 -0.041324314 1.3077654e-38 249 277
-0.078058392 0.63599998 -0.041259438 1.0056739e-38 250 277
-0.076822296 0.63499999 -0.041194562 1.0333686e-38 251 277
-0.075589702 0.634 -0.041129693 9.9627528e-39 252 277
-0.07412567 0.63099998 -0.040935073 1.0884708e-38 253 277
-0.073019318 0.63099998 -0.040935073 1.2083639e-38 254 277
-0.071685031 0.62900001 -0.040805325 1.2175836e-38 255 277
-0.070469975 0.62800002 -0.040740453 1.2725791e-38 256 277
-0.069368884 0.62800002 -0.040740453 1.2357009e-38 257 277
-0.068159074 0.62699997 -0.040675577 1.1806703e-38 258 277
-0.066845834 0.625 -0.040545832 1.1991093e-38 259 277
-0.065644801 0.62400001 -0.04048096 1.2268371e-38 260 277
-0.064447269 0.62300003 -0.040416088 1.2083621e-38 261 277
-0.063151553 0.62099999 -0.040286336 1.2541683e-38 262 277
-0.061962798 0.62 -0.040221468 1.2173261e-38 263 277
-0.060875732 0.62 -0.040221468 1.1806626e-38 264 277
-0.059692234 0.61900002 -0.040156592 1.1806626e-38 265 277
-0.058512233 0.61799997 -0.040091716 1.180416e-38 266 277
-0.057242822 0.616 -0.039961971 1.180416e-38 267 277
-0.056071598 0.61500001 -0.039897099 8.38941e-39 268 277
-0.054993298 0.61500001 -0.039897099 5.992325e-39 269 277
-0.053827334 0.61400002 -0.039832227 7.3587563e-39 270 277
-0.052664869 0.61299998 -0.039767351 8.0041257e-39 271 277
-0.051590078 0.61299998 -0.039767351 1.0665204e-38 272 277
-0.050432879 0.61199999 -0.039702479 1.0849595e-38 273 277
-0.049279187 0.611 -0.039637607 1.2867099e-38 274 277
-0.048207901 0.611 -0.039637607 1.2959295e-38 275 277
-0.047059465 0.61000001 -0.039572731 1.3692897e-38 276 277
-0.045914538 0.60900003 -0.039507862 1.3600702e-38 277 277
-0.044846762 0.60900003 -0.039507862 1.3876207e-38 278 277
-0.043707091 0.60799998 -0.039442983 1.3784011e-38 279 277
-0.042641066 0.60799998 -0.039442983 1.4242471e-38 280 277
-0.041506659 0.60699999 -0.03937811 1.4519059e-38 281 277
-0.040375758 0.60600001 -0.039313242 1.4522282e-38 282 277
-0.03918349 0.60399997 -0.03918349 1.4614478e-38 283 277
-0.038061358 0.60299999 -0.039118618 1.5256235e-38 284 277
-0.036942732 0.602 -0.039053746 1.5071485e-38 285 277
-0.035827611 0.60100001 -0.03898887 1.6082033e-38 286 277
-0.03477386 0.60100001 -0.03898887 1.5805087e-38 287 277
-0.033720106 0.60100001 -0.03898887 1.6171712e-38 288 277
-0.032666352 0.60100001 -0.03898887 1.6355743e-38 289 277
-0.031612601 0.60100001 -0.03898887 1.6354668e-38 290 277
-0.030508002 0.60000002 -0.038924001 1.6354668e-38 291 277
-0.029456001 0.60000002 -0.038924001 1.6354668e-38 292 277
-0.028404001 0.60000002 -0.038924001 1.6447222e-38 293 277
-0.027352 0.60000002 -0.038924001 1.635574e-38 294 277
-0.0263 0.60000002 -0.038924001 1.635574e-38 295 277
-0.025248 0.60000002 -0.038924001 1.6448291e-38 296 277
-0.024155671 0.59899998 -0.038859122 1.6540487e-38 297 277
-0.023105426 0.59899998 -0.038859122 1.6449738e-38 298 277
-0.022055179 0.59899998 -0.038859122 1.6357541e-38 299 277
-0.021004932 0.59899998 -0.038859122 1.6357187e-38 300 277
-0.019954685 0.59899998 -0.038859122 1.6449384e-38 301 277
-0.018935999 0.60000002 -0.038924001 1.6542302e-38 302 277
-0.017854191 0.59899998 -0.038859122 1.6634497e-38 303 277
-0.016803946 0.59899998 -0.038859122 1.6452623e-38 304 277
-0.015753699 0.59899998 -0.038859122 1.6637016e-38 305 277
-0.014703453 0.59899998 -0.038859122 1.6545902e-38 306 277
-0.013653206 0.59899998 -0.038859122 1.6822128e-38 307 277
-0.012602959 0.59899998 -0.038859122 1.6546265e-38 308 277
-0.011533426 0.59799999 -0.038794249 1.6731015e-38 309 277
-0.010484933 0.59799999 -0.038794249 1.6640618e-38 310 277
-0.0094206603 0.597 -0.038729381 1.6824649e-38 311 277
-0.0083739199 0.597 -0.038729381 1.6734249e-38 312 277
-0.0073271794 0.597 -0.038729381 1.6826444e-38 313 277
-0.0062909597 0.59799999 -0.038794249 1.6735329e-38 314 277
-0.0052687665 0.60100001 -0.03898887 1.6919719e-38 315 277
-0.0042150132 0.60100001 -0.03898887 1.6736767e-38 316 277
-0.0031770398 0.60399997 -0.03918349 1.6829321e-38 317 277
-0.0021180266 0.60399997 -0.03918349 1.6737852e-38 318 277
-0.00105726 0.60299999 -0.039118618 1.6830047e-38 319 277
0 0.60100001 -0.03898887 1.6830047e-38 320 277
0.0010537533 0.60100001 -0.03898887 1.701408e-38 321 277
0.0021075066 0.60100001 -0.03898887 1.6922966e-38 322 277
0.0031980798 0.60799998 -0.039442983 1.7015162e-38 323 277
0.056960538 0.63700002 -0.041324314 1.6648171e-38 371 277
0.057986237 0.63599998 -0.041259438 1.6648174e-38 372 277
0.059101358 0.63599998 -0.041259438 1.655562e-38 373 277
0.060311161 0.63700002 -0.041324314 1.6555976e-38 374 277
0.061331596 0.63599998 -0.041259438 1.6555976e-38 375 277
0.062446713 0.63599998 -0.041259438 1.6555253e-38 376 277
0.063661784 0.63700002 -0.041324314 1.664745e-38 377 277
0.064778656 0.63700002 -0.041324314 1.6738568e-38 378 277
0.065895528 0.63700002 -0.041324314 1.6646372e-38 379 277
0.067538396 0.64200002 -0.041648682 1.6646375e-38 380 277
0.068664044 0.64200002 -0.041648682 1.6646375e-38 381 277
0.077790141 0.64300001 -0.041713554 1.655382e-38 389 277
0.0787948 0.64200002 -0.041648682 1.6554176e-38 390 277
0.079920441 0.64200002 -0.041648682 1.6554176e-38 391 277
0.081172317 0.64300001 -0.041713554 1.6554176e-38 392 277
0.082299709 0.64300001 -0.041713554 1.6554176e-38 393 277
0.083297364 0.64200002 -0.041648682 1.6554176e-38 394 277
0.084422998 0.64200002 -0.041648682 1.6646372e-38 395 277
0.085548639 0.64200002 -0.041648682 1.6463057e-38 396 277
0.08667428 0.64200002 -0.041648682 1.6370861e-38 397 277
0.087799914 0.64200002 -0.041648682 1.6370861e-38 398 277
0.088925563 0.64200002 -0.041648682 1.6278666e-38 399 277
0.090051197 0.64200002 -0.041648682 1.6370142e-38 400 277
0.091176845 0.64200002 -0.041648682 1.6277947e-38 401 277
0.092302479 0.64200002 -0.041648682 1.6277947e-38 402 277
0.09342812 0.64200002 -0.041648682 1.6277947e-38 403 277
0.09484832 0.64399999 -0.041778423 1.6277947e-38 404 277
0.096275538 0.64600003 -0.041908171 1.6277947e-38 405 277
0.097106606 0.64399999 -0.041778423 1.6368707e-38 406 277
0.09808322 0.64300001 -0.041713554 1.6368707e-38 407 277
0.099210612 0.64300001 -0.041713554 1.6276866e-38 408 277
0.10143033 0.64999998 -0.042167664 1.6276866e-38 409 277
0.1030434 0.653 -0.042362284 1.6461256e-38 410 277
0.10434788 0.65399998 -0.04242716 1.6369061e-38 411 277
0.10549456 0.65399998 -0.04242716 1.6369417e-38 412 277
0.10664123 0.65399998 -0.04242716 1.6369417e-38 413 277
0.10795272 0.65499997 -0.042492028 1.6369417e-38 414 277
0.10910116 0.65499997 -0.042492028 1.6369417e-38 415 277
0.11024959 0.65499997 -0.042492028 1.646054e-38 416 277
0.12135871 0.67199999 -0.043594878 1.4891766e-38 423 277
0.12253696 0.67199999 -0.043594878 1.451902e-38 424 277
0.12371519 0.67199999 -0.043594878 1.3228281e-38 425 277
0.12489344 0.67199999 -0.043594878 1.3133565e-38 426 277
0.12607168 0.67199999 -0.043594878 1.2765142e-38 427 277
0.12762864 0.67400002 -0.043724626 1.2397802e-38 428 277
0.12881039 0.67400002 -0.043724626 1.1754944e-38 429 277
0.13114934 0.68000001 -0.044113863 1.2122298e-38 430 277
0.13234161 0.68000001 -0.044113863 1.2122298e-38 431 277
0.13353387 0.68000001 -0.044113863 1.2122292e-38 432 277
0.13512237 0.68199998 -0.044243611 1.2214129e-38 433 277
-0.11529569 0.671 -0.044706494 1.2610624e-38 222 278
-0.1141192 0.671 -0.044706494 1.2334039e-38 223 278
-0.11277439 0.67000002 -0.044639867 1.2608458e-38 224 278
-0.11159967 0.67000002 -0.044639867 1.2147479e-38 225 278
-0.1100953 0.66799998 -0.044506609 1.2603783e-38 226 278
-0.10892407 0.66799998 -0.044506609 1.2327555e-38 227 278
-0.10743023 0.66600001 -0.04437336 1.2509069e-38 228 278
-0.1059434 0.66399997 -0.044240102 1.2232841e-38 229 278
-0.1046214 0.66299999 -0.044173479 1.2690223e-38 230 278
-0.10330289 0.662 -0.044106852 1.2598028e-38 231 278
-0.1016793 0.65899998 -0.043906972 1.2596949e-38 232 278
-0.10037132 0.65799999 -0.043840345 1.2412918e-38 233 278
-0.099066831 0.65700001 -0.043773718 1.2504033e-38 234 278
-0.097467795 0.65399998 -0.043573838 1.2227806e-38 235 278
-0.096026562 0.65200001 -0.043440588 1.1860463e-38 236 278
-0.094592325 0.64999998 -0.04330733 1.1676071e-38 237 278
-0.093308888 0.64899999 -0.043240704 1.1767551e-38 238 278
-0.092028953 0.648 -0.043174081 1.1674995e-38 239 278
-0.090752535 0.64700001 -0.043107454 1.1583518e-38 240 278
-0.08947961 0.64600003 -0.043040827 1.1307292e-38 241 278
-0.088346958 0.64600003 -0.043040827 1.1307295e-38 242 278
-0.08694429 0.64399999 -0.042907573 1.121474e-38 243 278
-0.085681893 0.64300001 -0.042840946 1.0847405e-38 244 278
-0.084422998 0.64200002 -0.04277432 1.0847405e-38 245 278
-0.083167605 0.64099997 -0.042707693 1.0756639e-38 246 278
-0.081915729 0.63999999 -0.042641066 1.1125063e-38 247 278
-0.080541119 0.63800001 -0.042507812 1.0587306e-38 248 278
-0.079298005 0.63700002 -0.042441189 1.3168784e-38 249 278
-0.078181133 0.63700002 -0.042441189 1.1160595e-38 250 278
-0.076943278 0.63599998 -0.042374559 1.1805965e-38 251 278
-0.075708933 0.63499999 -0.042307932 1.1435403e-38 252 278
-0.074243151 0.63200003 -0.042108051 1.171199e-38 253 278
-0.073019318 0.63099998 -0.042041425 1.1806356e-38 254 278
-0.071799003 0.63 -0.041974798 1.1990387e-38 255 278
-0.070582189 0.62900001 -0.041908171 1.2174062e-38 256 278
-0.069368884 0.62800002 -0.041841544 1.1897475e-38 257 278
-0.068159074 0.62699997 -0.041774917 1.1897826e-38 258 278
-0.066845834 0.625 -0.041641664 1.2174412e-38 259 278
-0.065749995 0.625 -0.041641664 1.2544274e-38 260 278
-0.064447269 0.62300003 -0.041508414 1.2452078e-38 261 278
-0.063151553 0.62099999 -0.041375156 1.2911236e-38 262 278
-0.061962798 0.62 -0.04130853 1.2358062e-38 263 278
-0.060875732 0.62 -0.04130853 1.1714806e-38 264 278
-0.059692234 0.61900002 -0.041241907 1.1437859e-38 265 278
-0.058512233 0.61799997 -0.041175276 1.1161311e-38 266 278
-0.057428673 0.61799997 -0.041175276 1.1161311e-38 267 278
-0.056071598 0.61500001 -0.040975399 5.8155119e-39 268 278
-0.054993298 0.61500001 -0.040975399 3.6950111e-39 269 278
-0.053827334 0.61400002 -0.040908772 4.7877492e-39 270 278
-0.052664869 0.61299998 -0.040842142 5.156173e-39 271 278
-0.051590078 0.61299998 -0.040842142 7.7254103e-39 272 278
-0.050432879 0.61199999 -0.040775519 8.2785827e-39 273 278
-0.049279187 0.611 -0.040708892 1.0481539e-38 274 278
-0.048207901 0.611 -0.040708892 1.0849961e-38 275 278
-0.047059465 0.61000001 -0.040642265 1.250191e-38 276 278
-0.045914538 0.60900003 -0.040575638 1.231716e-38 277 278
-0.044773117 0.60799998 -0.040509012 1.3233355e-38 278 278
-0.043707091 0.60799998 -0.040509012 1.3048964e-38 279 278
-0.04257093 0.60699999 -0.040442385 1.3691818e-38 280 278
-0.041438282 0.60600001 -0.040375758 1.387621e-38 281 278
-0.040242504 0.60399997 -0.040242504 1.3878006e-38 282 278
-0.039118618 0.60299999 -0.040175878 1.4154591e-38 283 278
-0.03799824 0.602 -0.040109251 1.4337535e-38 284 278
-0.036942732 0.602 -0.040109251 1.4337535e-38 285 278
-0.035827611 0.60100001 -0.040042628 1.5439194e-38 286 278
-0.03477386 0.60100001 -0.040042628 1.5439194e-38 287 278
-0.033663999 0.60000002 -0.039976001 1.5806888e-38 288 278
-0.032612 0.60000002 -0.039976001 1.5806888e-38 289 278
-0.03156 0.60000002 -0.039976001 1.5988762e-38 290 278
-0.03045715 0.59899998 -0.03990937 1.5988762e-38 291 278
-0.029406905 0.59899998 -0.03990937 1.6171712e-38 292 278
-0.028309319 0.59799999 -0.039842743 1.6355743e-38 293 278
-0.027215241 0.597 -0.03977612 1.6355377e-38 294 278
-0.026168499 0.597 -0.03977612 1.6355377e-38 295 278
-0.02512176 0.597 -0.03977612 1.6356096e-38 296 278
-0.024115345 0.59799999 -0.039842743 1.6448291e-38 297 278
-0.023066852 0.59799999 -0.039842743 1.6264623e-38 298 278
-0.022018358 0.59799999 -0.039842743 1.6356819e-38 299 278
-0.020969866 0.59799999 -0.039842743 1.6356824e-38 300 278
-0.019921372 0.59799999 -0.039842743 1.6356824e-38 301 278
-0.018904438 0.59899998 -0.03990937 1.6357187e-38 302 278
-0.017824385 0.59799999 -0.039842743 1.654158e-38 303 278
-0.01674784 0.597 -0.03977612 1.6266438e-38 304 278
-0.0157011 0.597 -0.03977612 1.6451188e-38 305 278
-0.014629813 0.59600002 -0.039709494 1.6452273e-38 306 278
-0.013584826 0.59600002 -0.039709494 1.654447e-38 307 278
-0.01253984 0.59600002 -0.039709494 1.654447e-38 308 278
-0.011494854 0.59600002 -0.039709494 1.6636665e-38 309 278
-0.010449867 0.59600002 -0.039709494 1.6546265e-38 310 278
-0.00940488 0.59600002 -0.039709494 1.6731015e-38 311 278
-0.0083598932 0.59600002 -0.039709494 1.6641334e-38 312 278
-0.0073149065 0.59600002 -0.039709494 1.6641334e-38 313 278
-0.0062699202 0.59600002 -0.039709494 1.664205e-38 314 278
-0.0052249334 0.59600002 -0.039709494 1.68268e-38 315 278
-0.0041799466 0.59600002 -0.039709494 1.6735329e-38 316 278
-0.00314022 0.597 -0.03977612 1.6919719e-38 317 278
-0.0021180266 0.60399997 -0.040242504 1.6736773e-38 318 278
-0.00105726 0.60299999 -0.040175878 1.6828968e-38 319 278
0 0.60100001 -0.040042628 1.6827893e-38 320 278
0.0010537533 0.60100001 -0.040042628 1.7104479e-38 321 278
0.0021075066 0.60100001 -0.040042628 1.6738217e-38 322 278
0.056960538 0.63700002 -0.042441189 1.6648174e-38 371 278
0.057986237 0.63599998 -0.042374559 1.6555622e-38 372 278
0.059101358 0.63599998 -0.042374559 1.6555622e-38 373 278
0.060216475 0.63599998 -0.042374559 1.655562e-38 374 278
0.061235163 0.63499999 -0.042307932 1.6463423e-38 375 278
0.062348526 0.63499999 -0.042307932 1.6555976e-38 376 278
0.0634619 0.63499999 -0.042307932 1.6555976e-38 377 278
0.064676955 0.63599998 -0.042374559 1.6555255e-38 378 278
0.077669159 0.64200002 -0.04277432 1.6553457e-38 389 278
0.0787948 0.64200002 -0.04277432 1.6645653e-38 390 278
0.079920441 0.64200002 -0.04277432 1.6645653e-38 391 278
0.081046082 0.64200002 -0.04277432 1.6554174e-38 392 278
0.082171716 0.64200002 -0.04277432 1.6554174e-38 393 278
0.083167605 0.64099997 -0.042707693 1.6554174e-38 394 278
0.084291495 0.64099997 -0.042707693 1.6554174e-38 395 278
0.085282132 0.63999999 -0.042641066 1.6554174e-38 396 278
0.086404264 0.63999999 -0.042641066 1.6370142e-38 397 278
0.087663151 0.64099997 -0.042707693 1.6554174e-38 398 278
0.088787034 0.64099997 -0.042707693 1.6554174e-38 399 278
0.089910932 0.64099997 -0.042707693 1.6370142e-38 400 278
0.091034815 0.64099997 -0.042707693 1.6277947e-38 401 278
0.092158698 0.64099997 -0.042707693 1.6185751e-38 402 278
0.09342812 0.64200002 -0.04277432 1.6277947e-38 403 278
0.094701037 0.64300001 -0.042840946 1.6369063e-38 404 278
0.095977463 0.64399999 -0.042907573 1.6369063e-38 405 278
0.096201889 0.63800001 -0.042507812 1.6369063e-38 406 278
0.097320519 0.63800001 -0.042507812 1.6369063e-38 407 278
0.099210612 0.64300001 -0.042840946 1.6369063e-38 408 278
0.10127428 0.64899999 -0.043240704 1.6276866e-38 409 278
0.1028856 0.65200001 -0.043440588 1.6185748e-38 410 278
0.10418832 0.653 -0.043507211 1.6185748e-38 411 278
0.10549456 0.65399998 -0.043573838 1.6276864e-38 412 278
0.10664123 0.65399998 -0.043573838 1.6276864e-38 413 278
0.10795272 0.65499997 -0.043640465 1.6368696e-38 414 278
0.10910116 0.65499997 -0.043640465 1.6368696e-38 415 278
0.11024959 0.65499997 -0.043640465 1.6276866e-38 416 278
0.120717 0.67500001 -0.044972997 1.4983958e-38 422 278
0.1219005 0.67500001 -0.044972997 1.3416991e-38 423 278
0.123084 0.67500001 -0.044972997 1.3040653e-38 424 278
0.1242675 0.67500001 -0.044972997 1.1754944e-38 425 278
0.125451 0.67500001 -0.044972997 1.2214129e-38 426 278
0.1264469 0.67400002 -0.044906374 1.2305966e-38 427 278
0.12762864 0.67400002 -0.044906374 1.2214146e-38 428 278
0.12919261 0.676 -0.045039624 1.2122308e-38 429 278
0.13095647 0.67900002 -0.045239504 1.2397806e-38 430 278
0.13214698 0.67900002 -0.045239504 1.203046e-38 431 278
0.1333375 0.67900002 -0.045239504 1.1479438e-38 432 278
0.13472614 0.68000001 -0.045306131 1.3687111e-38 433 278
-0.11277439 0.67000002 -0.0458146 1.2243288e-38 224 279
-0.11159967 0.67000002 -0.0458146 1.1966701e-38 225 279
-0.11042494 0.67000002 -0.0458146 1.2331167e-38 226 279
-0.10892407 0.66799998 -0.045677837 1.2146776e-38 227 279
-0.10759154 0.667 -0.045609459 1.2329372e-38 228 279
-0.1059434 0.66399997 -0.045404319 1.1868394e-38 229 279
-0.10477919 0.66399997 -0.045404319 1.2600198e-38 230 279
-0.10345893 0.66299999 -0.045335937 1.2508003e-38 231 279
-0.10198789 0.66100001 -0.045199182 1.2689873e-38 232 279
-0.10052385 0.65899998 -0.045062415 1.2597677e-38 233 279
-0.099368408 0.65899998 -0.045062415 1.2413283e-38 234 279
-0.097914897 0.65700001 -0.04492566 1.2413283e-38 235 279
-0.096321113 0.65399998 -0.044720516 1.2046299e-38 236 279
-0.094883382 0.65200001 -0.044583756 1.1677516e-38 237 279
-0.093452662 0.64999998 -0.044446997 1.1860828e-38 238 279
-0.092170976 0.64899999 -0.044378616 1.1676797e-38 239 279
-0.090892799 0.648 -0.044310238 1.1402008e-38 240 279
-0.089756638 0.648 -0.044310238 1.1125063e-38 241 279
-0.088346958 0.64600003 -0.044173479 1.1125065e-38 242 279
-0.087214306 0.64600003 -0.044173479 1.1125065e-38 243 279
-0.085815147 0.64399999 -0.044036716 1.0849203e-38 244 279
-0.084554501 0.64300001 -0.043968339 1.0757007e-38 245 279
-0.083167605 0.64099997 -0.043831576 1.0849551e-38 246 279
-0.081915729 0.63999999 -0.043763198 1.0849551e-38 247 279
-0.080793597 0.63999999 -0.043763198 1.0678425e-38 248 279
-0.079422489 0.63800001 -0.043626439 1.353649e-38 249 279
-0.078181133 0.63700002 -0.043558061 1.2264457e-38 250 279
-0.076943278 0.63599998 -0.043489676 1.364775e-38 251 279
-0.075708933 0.63499999 -0.043421298 1.3093524e-38 252 279
-0.07447809 0.634 -0.043352917 1.2816577e-38 253 279
-0.073135041 0.63200003 -0.043216161 1.2266275e-38 254 279
-0.071799003 0.63 -0.043079399 1.2174079e-38 255 279
-0.070694394 0.63 -0.043079399 1.1991117e-38 256 279
-0.069479339 0.62900001 -0.043011017 1.1714529e-38 257 279
-0.068267785 0.62800002 -0.042942639 1.189747e-38 258 279
-0.067059733 0.62699997 -0.042874258 1.1990024e-38 259 279
-0.065749995 0.625 -0.042737499 1.2174415e-38 260 279
-0.06455072 0.62400001 -0.042669121 1.2266612e-38 261 279
-0.063151553 0.62099999 -0.042463977 1.2450994e-38 262 279
-0.062062737 0.62099999 -0.042463977 1.2543548e-38 263 279
-0.060875732 0.62 -0.042395599 1.2264753e-38 264 279
-0.059692234 0.61900002 -0.042327221 1.1619383e-38 265 279
-0.058606923 0.61900002 -0.042327221 1.0885448e-38 266 279
-0.057428673 0.61799997 -0.042258836 9.8716544e-39 267 279
-0.056162775 0.616 -0.042122077 3.2358476e-39 268 279
-0.054993298 0.61500001 -0.042053699 2.3142514e-39 269 279
-0.053827334 0.61400002 -0.041985322 4.6937781e-39 270 279
-0.052664869 0.61299998 -0.041916937 4.2324398e-39 271 279
-0.051590078 0.61299998 -0.041916937 3.2233298e-39 272 279
-0.050432879 0.61199999 -0.041848559 3.2233298e-39 273 279
-0.049279187 0.611 -0.041780181 5.061462e-39 274 279
-0.048207901 0.611 -0.041780181 5.9834197e-39 275 279
-0.047059465 0.61000001 -0.0417118 9.8369008e-39 276 279
-0.045914538 0.60900003 -0.041643422 1.0113848e-38 277 279
-0.044773117 0.60799998 -0.041575037 1.2499403e-38 278 279
-0.043635204 0.60699999 -0.041506659 1.2591957e-38 279 279
-0.04257093 0.60699999 -0.041506659 1.3506348e-38 280 279
-0.041438282 0.60600001 -0.041438282 1.3691099e-38 281 279
-0.040242504 0.60399997 -0.041301519 1.3875488e-38 282 279
-0.039118618 0.60299999 -0.041233137 1.3875488e-38 283 279
-0.03799824 0.602 -0.04116476 1.433502e-38 284 279
-0.036942732 0.602 -0.04116476 1.4519413e-38 285 279
-0.035827611 0.60100001 -0.041096382 1.4246419e-38 286 279
-0.03477386 0.60100001 -0.041096382 1.4338614e-38 287 279
-0.033663999 0.60000002 -0.041028 1.5438122e-38 288 279
-0.032612 0.60000002 -0.041028 1.5438122e-38 289 279
-0.03156 0.60000002 -0.041028 1.5896932e-38 290 279
-0.03045715 0.59899998 -0.040959619 1.5804737e-38 291 279
-0.029406905 0.59899998 -0.040959619 1.6171356e-38 292 279
-0.028214641 0.59600002 -0.040754482 1.6171356e-38 293 279
-0.027169652 0.59600002 -0.040754482 1.6355377e-38 294 279
-0.026124667 0.59600002 -0.040754482 1.6262823e-38 295 279
-0.025079681 0.59600002 -0.040754482 1.6355377e-38 296 279
-0.024034692 0.59600002 -0.040754482 1.6262823e-38 297 279
-0.023028279 0.597 -0.04082286 1.6355377e-38 298 279
-0.021981539 0.597 -0.04082286 1.6355377e-38 299 279
-0.0209348 0.597 -0.04082286 1.635574e-38 300 279
-0.01988806 0.597 -0.04082286 1.635574e-38 301 279
-0.018841321 0.597 -0.04082286 1.6447219e-38 302 279
-0.017764773 0.59600002 -0.040754482 1.6723446e-38 303 279
-0.016719786 0.59600002 -0.040754482 1.6357543e-38 304 279
-0.015648499 0.59500003 -0.040686101 1.644974e-38 305 279
-0.014580719 0.59399998 -0.040617716 1.6542299e-38 306 279
-0.013539239 0.59399998 -0.040617716 1.6634853e-38 307 279
-0.012497759 0.59399998 -0.040617716 1.6634497e-38 308 279
-0.011456279 0.59399998 -0.040617716 1.6726693e-38 309 279
-0.010432334 0.59500003 -0.040686101 1.65441e-38 310 279
-0.0093891006 0.59500003 -0.040686101 1.6728492e-38 311 279
-0.0083458666 0.59500003 -0.040686101 1.6547693e-38 312 279
-0.0072903596 0.59399998 -0.040617716 1.6639888e-38 313 279
-0.0062488797 0.59399998 -0.040617716 1.6639532e-38 314 279
-0.0052161668 0.59500003 -0.040686101 1.6824284e-38 315 279
-0.0041589066 0.59299999 -0.040549338 1.664169e-38 316 279
-0.00311918 0.59299999 -0.040549338 1.6826082e-38 317 279
-0.0020794533 0.59299999 -0.040549338 1.6734252e-38 318 279
-0.0010397267 0.59299999 -0.040549338 1.6826447e-38 319 279
0 0.59200001 -0.04048096 1.6733896e-38 320 279
0.0010397267 0.59299999 -0.040549338 1.7010843e-38 321 279
0.0020794533 0.59299999 -0.040549338 1.6736773e-38 322 279
0.059101358 0.63599998 -0.043489676 1.6647818e-38 373 279
0.060216475 0.63599998 -0.043489676 1.6555622e-38 374 279
0.061235163 0.63499999 -0.043421298 1.6555622e-38 375 279
0.062348526 0.63499999 -0.043421298 1.6464859e-38 376 279
0.0634619 0.63499999 -0.043421298 1.6372663e-38 377 279
0.064676955 0.63599998 -0.043489676 1.6555253e-38 378 279
0.077548169 0.64099997 -0.043831576 1.6554529e-38 389 279
0.078672059 0.64099997 -0.043831576 1.6646369e-38 390 279
0.079795949 0.64099997 -0.043831576 1.6554174e-38 391 279
0.081046082 0.64200002 -0.043899957 1.6370861e-38 392 279
0.082171716 0.64200002 -0.043899957 1.6370861e-38 393 279
0.083167605 0.64099997 -0.043831576 1.6646369e-38 394 279
0.084291495 0.64099997 -0.043831576 1.6554174e-38 395 279
0.085282132 0.63999999 -0.043763198 1.6553811e-38 396 279
0.086404264 0.63999999 -0.043763198 1.6553811e-38 397 279
0.087116122 0.63700002 -0.043558061 1.6553811e-38 398 279
0.088232994 0.63700002 -0.043558061 1.6553811e-38 399 279
0.08977066 0.63999999 -0.043763198 1.637014e-38 400 279
0.090608761 0.63800001 -0.043626439 1.637014e-38 401 279
0.091727383 0.63800001 -0.043626439 1.6277947e-38 402 279
0.092700489 0.63700002 -0.043558061 1.6277947e-38 403 279
0.093817361 0.63700002 -0.043558061 1.6460543e-38 404 279
0.095977463 0.64399999 -0.044036716 1.6460543e-38 405 279
0.096201889 0.63800001 -0.043626439 1.6277591e-38 406 279
0.097320519 0.63800001 -0.043626439 1.6277591e-38 407 279
0.10013637 0.64899999 -0.044378616 1.6276866e-38 408 279
0.10127428 0.64899999 -0.044378616 1.6369063e-38 409 279
0.1028856 0.65200001 -0.044583756 1.6276864e-38 410 279
0.10418832 0.653 -0.044652138 1.6369061e-38 411 279
0.10549456 0.65399998 -0.044720516 1.6369061e-38 412 279
0.10664123 0.65399998 -0.044720516 1.6276864e-38 413 279
0.10778791 0.65399998 -0.044720516 1.6369414e-38 414 279
0.11275861 0.66299999 -0.045335937 1.62783e-38 417 279
0.11887599 0.67799997 -0.046361636 1.4331389e-38 420 279
0.12006475 0.67799997 -0.046361636 1.2489629e-38 421 279
0.12089584 0.676 -0.046224877 1.1663108e-38 422 279
0.12171991 0.67400002 -0.046088122 1.1663108e-38 423 279
0.12290165 0.67400002 -0.046088122 1.203045e-38 424 279
0.1242675 0.67500001 -0.0461565 1.2214121e-38 425 279
0.125451 0.67500001 -0.0461565 1.2305966e-38 426 279
0.1264469 0.67400002 -0.046088122 1.2581478e-38 427 279
0.12762864 0.67400002 -0.046088122 1.2214129e-38 428 279
0.12919261 0.676 -0.046224877 1.1938619e-38 429 279
0.13095647 0.67900002 -0.046430022 1.1754955e-38 430 279
0.13214698 0.67900002 -0.046430022 1.4059488e-38 431 279
0.1333375 0.67900002 -0.046430022 1.3158392e-38 432 279
0.13472614 0.68000001 -0.046498399 1.5647674e-38 433 279
-0.10892407 0.66799998 -0.046849065 1.2058531e-38 227 280
-0.10759154 0.667 -0.046778932 1.2148926e-38 228 280
-0.1059434 0.66399997 -0.046568532 1.2056729e-38 229 280
-0.10477919 0.66399997 -0.046568532 1.2605584e-38 230 280
-0.10345893 0.66299999 -0.046498399 1.2237161e-38 231 280
-0.10198789 0.66100001 -0.046358135 1.2601268e-38 232 280
-0.10082894 0.66100001 -0.046358135 1.2325041e-38 233 280
-0.099368408 0.65899998 -0.046217863 1.2598747e-38 234 280
-0.098063931 0.65799999 -0.04614773 1.2598747e-38 235 280
-0.096762955 0.65700001 -0.046077598 1.2506182e-38 236 280
-0.095028915 0.653 -0.045797065 1.2413987e-38 237 280
-0.09374021 0.65200001 -0.045726933 1.2504386e-38 238 280
-0.092597038 0.65200001 -0.045726933 1.22278e-38 239 280
-0.091033064 0.64899999 -0.045516532 1.2044131e-38 240 280
-0.089756638 0.648 -0.0454464 1.1951935e-38 241 280
-0.088483714 0.64700001 -0.045376267 1.1584955e-38 242 280
-0.087214306 0.64600003 -0.045306131 1.1584955e-38 243 280
-0.086081654 0.64600003 -0.045306131 1.140021e-38 244 280
-0.084554501 0.64300001 -0.045095734 1.140021e-38 245 280
-0.083297364 0.64200002 -0.045025598 1.1125417e-38 246 280
-0.082043722 0.64099997 -0.044955466 1.1217614e-38 247 280
-0.080793597 0.63999999 -0.04488533 1.0952864e-38 248 280
-0.079671465 0.63999999 -0.04488533 1.3902764e-38 249 280
-0.078303866 0.63800001 -0.044745065 1.2448505e-38 250 280
-0.076943278 0.63599998 -0.044604797 1.3647047e-38 251 280
-0.075708933 0.63499999 -0.044534665 1.3367975e-38 252 280
-0.07447809 0.634 -0.044464532 1.3183584e-38 253 280
-0.073135041 0.63200003 -0.044324268 1.2540716e-38 254 280
-0.071799003 0.63 -0.044183999 1.2540716e-38 255 280
-0.070694394 0.63 -0.044183999 1.2541417e-38 256 280
-0.069479339 0.62900001 -0.044113863 1.2264828e-38 257 280
-0.068267785 0.62800002 -0.044043735 1.2356655e-38 258 280
-0.067059733 0.62699997 -0.043973595 1.2172264e-38 259 280
-0.065749995 0.625 -0.04383333 1.1806359e-38 260 280
-0.06455072 0.62400001 -0.043763202 1.199039e-38 261 280
-0.063354947 0.62300003 -0.043693069 1.2174763e-38 262 280
-0.062062737 0.62099999 -0.043552797 1.1990371e-38 263 280
-0.06097392 0.62099999 -0.043552797 1.1529358e-38 264 280
-0.059788663 0.62 -0.043482665 1.106838e-38 265 280
-0.058606923 0.61900002 -0.043412533 9.5032601e-39 266 280
-0.057428673 0.61799997 -0.043342397 8.3969125e-39 267 280
-0.056162775 0.616 -0.043202132 2.1284477e-39 268 280
-0.054993298 0.61500001 -0.043132 1.298687e-39 269 280
-0.053827334 0.61400002 -0.043061867 2.9489149e-39 270 280
-0.052664869 0.61299998 -0.042991728 2.8567193e-39 271 280
-0.051590078 0.61299998 -0.042991728 2.7652453e-39 272 280
-0.050432879 0.61199999 -0.042921599 2.8574409e-39 273 280
-0.049279187 0.611 -0.042851467 3.5928354e-39 274 280
-0.048207901 0.611 -0.042851467 3.9616179e-39 275 280
-0.046982322 0.60900003 -0.042711198 6.3468129e-39 276 280
-0.045914538 0.60900003 -0.042711198 6.6233997e-39 277 280
-0.044773117 0.60799998 -0.042641066 8.8256398e-39 278 280
-0.043635204 0.60699999 -0.04257093 9.2869767e-39 279 280
-0.04257093 0.60699999 -0.04257093 1.1122589e-38 280 280
-0.041438282 0.60600001 -0.042500798 1.1398816e-38 281 280
-0.040242504 0.60399997 -0.042360533 1.2682705e-38 282 280
-0.039118618 0.60299999 -0.042290397 1.2774901e-38 283 280
-0.038061358 0.60299999 -0.042290397 1.3600702e-38 284 280
-0.036942732 0.602 -0.042220265 1.3508147e-38 285 280
-0.035827611 0.60100001 -0.042150132 1.3692894e-38 286 280
-0.03477386 0.60100001 -0.042150132 1.3876926e-38 287 280
-0.033663999 0.60000002 -0.04208 1.4244623e-38 288 280
-0.032557648 0.59899998 -0.042009864 1.4429015e-38 289 280
-0.031507399 0.59899998 -0.042009864 1.498074e-38 290 280
-0.030406304 0.59799999 -0.041939732 1.5072935e-38 291 280
-0.029308718 0.597 -0.041869599 1.5531027e-38 292 280
-0.028214641 0.59600002 -0.041799467 1.5531027e-38 293 280
-0.027169652 0.59600002 -0.041799467 1.5989834e-38 294 280
-0.026124667 0.59600002 -0.041799467 1.5897639e-38 295 280
-0.025079681 0.59600002 -0.041799467 1.6355374e-38 296 280
-0.024034692 0.59600002 -0.041799467 1.6263179e-38 297 280
-0.022989707 0.59600002 -0.041799467 1.6262823e-38 298 280
-0.02194472 0.59600002 -0.041799467 1.6355377e-38 299 280
-0.020899734 0.59600002 -0.041799467 1.6262105e-38 300 280
-0.019854747 0.59600002 -0.041799467 1.6354302e-38 301 280
-0.018778201 0.59500003 -0.041729335 1.6447219e-38 302 280
-0.017734967 0.59500003 -0.041729335 1.6539415e-38 303 280
-0.01666368 0.59399998 -0.041659195 1.6356822e-38 304 280
-0.015595899 0.59299999 -0.041589063 1.663305e-38 305 280
-0.014556173 0.59299999 -0.041589063 1.6357187e-38 306 280
-0.013516447 0.59299999 -0.041589063 1.6449384e-38 307 280
-0.01247672 0.59299999 -0.041589063 1.6265719e-38 308 280
-0.011436992 0.59299999 -0.041589063 1.6265719e-38 309 280
-0.010397266 0.59299999 -0.041589063 1.6358636e-38 310 280
-0.0093575399 0.59299999 -0.041589063 1.6450832e-38 311 280
-0.0083178133 0.59299999 -0.041589063 1.6451551e-38 312 280
-0.0072780866 0.59299999 -0.041589063 1.6636302e-38 313 280
-0.00623836 0.59299999 -0.041589063 1.6453353e-38 314 280
-0.0051986328 0.59299999 -0.041589063 1.6453353e-38 315 280
-0.0041589066 0.59299999 -0.041589063 1.6546267e-38 316 280
-0.00311918 0.59299999 -0.041589063 1.6638463e-38 317 280
-0.0020794533 0.59299999 -0.041589063 1.6640268e-38 318 280
-0.0010379733 0.59200001 -0.041518934 1.6824299e-38 319 280
0 0.59200001 -0.041518934 1.6550589e-38 320 280
0.0010397267 0.59299999 -0.041589063 1.6734982e-38 321 280
0.0020794533 0.59299999 -0.041589063 1.6552385e-38 322 280
0.00310866 0.59100002 -0.041448802 1.6736417e-38 323 280
0.00414488 0.59100002 -0.041448802 1.6736417e-38 324 280
0.060121801 0.63499999 -0.044534665 1.6464859e-38 374 280
0.06113873 0.634 -0.044464532 1.6464859e-38 375 280
0.062053975 0.63200003 -0.044324268 1.6464856e-38 376 280
0.063162081 0.63200003 -0.044324268 1.6372661e-38 377 280
0.077548169 0.64099997 -0.044955466 1.6646003e-38 389 280
0.078672059 0.64099997 -0.044955466 1.6554174e-38 390 280
0.079795949 0.64099997 -0.044955466 1.6554174e-38 391 280
0.080919832 0.64099997 -0.044955466 1.6554174e-38 392 280
0.082043722 0.64099997 -0.044955466 1.6646369e-38 393 280
0.083167605 0.64099997 -0.044955466 1.6646006e-38 394 280
0.08416 0.63999999 -0.04488533 1.6553811e-38 395 280
0.085282132 0.63999999 -0.04488533 1.6553811e-38 396 280
0.086404264 0.63999999 -0.04488533 1.6553811e-38 397 280
0.087116122 0.63700002 -0.044674933 1.6552736e-38 398 280
0.087540425 0.63200003 -0.044324268 1.6552736e-38 399 280
0.088648535 0.63200003 -0.044324268 1.6553455e-38 400 280
0.090466738 0.63700002 -0.044674933 1.6461259e-38 401 280
0.09158361 0.63700002 -0.044674933 1.6461259e-38 402 280
0.092700489 0.63700002 -0.044674933 1.6369063e-38 403 280
0.093817361 0.63700002 -0.044674933 1.6460543e-38 404 280
0.094934233 0.63700002 -0.044674933 1.6460543e-38 405 280
0.096051104 0.63700002 -0.044674933 1.646054e-38 406 280
0.097320519 0.63800001 -0.044745065 1.6552736e-38 407 280
0.098439142 0.63800001 -0.044745065 1.6460537e-38 408 280
0.10221056 0.65499997 -0.04593733 1.6460537e-38 409 280
0.10335899 0.65499997 -0.04593733 1.6185751e-38 410 280
0.10450742 0.65499997 -0.04593733 1.6185751e-38 411 280
0.10565586 0.65499997 -0.04593733 1.6276866e-38 412 280
0.10680429 0.65499997 -0.04593733 1.6276866e-38 413 280
0.10910642 0.662 -0.046428263 1.6093551e-38 414 280
0.11887599 0.67799997 -0.047550395 1.2765141e-38 420 280
0.12006475 0.67799997 -0.047550395 1.1846779e-38 421 280
0.12053816 0.67400002 -0.047269866 1.1754962e-38 422 280
0.12171991 0.67400002 -0.047269866 1.2122308e-38 423 280
0.12290165 0.67400002 -0.047269866 1.2122311e-38 424 280
0.1242675 0.67500001 -0.047339998 1.2214149e-38 425 280
0.125451 0.67500001 -0.047339998 1.2214135e-38 426 280
0.1264469 0.67400002 -0.047269866 1.2214135e-38 427 280
0.12762864 0.67400002 -0.047269866 1.203045e-38 428 280
0.12919261 0.676 -0.047410134 1.2765142e-38 429 280
