# .PCD v.7 - Point Cloud Data file format
FIELDS x y z rgb imX imY
SIZE 4 4 4 4 4 4
TYPE F F F F F F
COUNT 1 1 1 1 1 1
WIDTH 839
HEIGHT 1
VIEWPOINT 0 0 0 1 0 0 0
POINTS 839
DATA ascii
0 0.67799997 -0.011887599 6.3459889e-39 320 250
0.0011852533 0.676 -0.011852534 5.7931738e-39 321 250
0.0023669999 0.67500001 -0.011835 4.8690834e-39 322 250
0.0035505001 0.67500001 -0.011835 8.0037334e-39 323 250
0.0047339997 0.67500001 -0.011835 1.2434535e-38 324 250
0.0058911997 0.67199999 -0.011782399 1.3633079e-38 325 250
0.0070589199 0.671 -0.011764866 1.4268685e-38 326 250
0.0082354061 0.671 -0.011764866 1.1410262e-38 327 250
0.0093698129 0.66799998 -0.011712266 1.3604579e-38 328 250
0.010525259 0.667 -0.011694733 1.3051405e-38 329 250
0.011694733 0.667 -0.011694733 1.3874339e-38 330 250
0.012864206 0.667 -0.011694733 1.3874339e-38 331 250
0.014012639 0.66600001 -0.011677199 1.4057295e-38 332 250
0.01518036 0.66600001 -0.011677199 1.4057295e-38 333 250
0.016298985 0.66399997 -0.011642133 1.3875055e-38 334 250
0.017436899 0.66299999 -0.0116246 1.3782859e-38 335 250
0.018571306 0.662 -0.011607066 1.4058006e-38 336 250
0.019702207 0.66100001 -0.011589534 1.3873617e-38 337 250
0.020798039 0.65899998 -0.011554466 1.3965094e-38 338 250
0.021953486 0.65899998 -0.011554466 1.3965094e-38 339 250
0.023073865 0.65799999 -0.011536933 1.3965094e-38 340 250
0.024190739 0.65700001 -0.011519399 1.3965094e-38 341 250
0.025342681 0.65700001 -0.011519399 1.38729e-38 342 250
0.026413966 0.65499997 -0.011484332 1.4057288e-38 343 250
0.027562398 0.65499997 -0.011484332 1.3965094e-38 344 250
0.028666999 0.65399998 -0.011466799 1.4057288e-38 345 250
0.029813679 0.65399998 -0.011466799 1.3875058e-38 346 250
0.030865679 0.65200001 -0.011431733 1.4335676e-38 347 250
0.031910665 0.64999998 -0.011396666 1.3885154e-38 348 250
0.033050328 0.64999998 -0.011396666 1.563687e-38 349 250
0.034137398 0.64899999 -0.011379133 1.3621886e-38 350 250
0.035220958 0.648 -0.0113616 1.0302485e-38 351 250
0.036301013 0.64700001 -0.011344067 5.9761302e-39 352 250
0.037377559 0.64600003 -0.011326533 5.6077078e-39 353 250
0.038510215 0.64600003 -0.011326533 5.9761302e-39 354 250
0.03952013 0.64399999 -0.011291467 6.2530772e-39 355 250
0.040586159 0.64300001 -0.011273934 6.5300102e-39 356 250
0.041648682 0.64200002 -0.0112564 6.7144015e-39 357 250
0.04277432 0.64200002 -0.0112564 7.4487225e-39 358 250
0.043899957 0.64200002 -0.0112564 7.4487225e-39 359 250
0.044955466 0.64099997 -0.011238866 7.9082629e-39 360 250
0.046079349 0.64099997 -0.011238866 8.1844897e-39 361 250
0.046982322 0.63800001 -0.011186266 8.0018963e-39 362 250
0.048025552 0.63700002 -0.011168733 8.0018963e-39 363 250
0.049142428 0.63700002 -0.011168733 7.8182253e-39 364 250
0.0502593 0.63700002 -0.011168733 7.2654102e-39 365 250
0.051456824 0.63800001 -0.011186266 6.8973662e-39 366 250
0.05257545 0.63800001 -0.011186266 1.2060321e-38 367 250
0.053694081 0.63800001 -0.011186266 1.096946e-38 368 250
0.055156358 0.64200002 -0.0112564 1.1614829e-38 369 250
0.056282002 0.64200002 -0.0112564 1.1615185e-38 370 250
0.057765324 0.64600003 -0.011326533 1.1707381e-38 371 250
0.058897976 0.64600003 -0.011326533 1.2258402e-38 372 250
0.060309403 0.64899999 -0.011379133 1.2350599e-38 373 250
0.061541997 0.64999998 -0.011396666 1.207581e-38 374 250
0.062874533 0.65200001 -0.011431733 1.1891419e-38 375 250
0.064115889 0.653 -0.011449266 1.2442429e-38 376 250
0.065460697 0.65499997 -0.011484332 1.2442429e-38 377 250
0.066812515 0.65700001 -0.011519399 1.225948e-38 378 250
0.068067901 0.65799999 -0.011536933 1.2536065e-38 379 250
0.069221593 0.65799999 -0.011536933 1.2813372e-38 380 250
0.070803106 0.662 -0.011607066 1.2997764e-38 381 250
0.072181225 0.66399997 -0.011642133 1.2997401e-38 382 250
0.073787279 0.66799998 -0.011712266 1.3181432e-38 383 250
0.075295143 0.671 -0.011764866 1.3365107e-38 384 250
0.076585598 0.67199999 -0.011782399 1.3549138e-38 385 250
0.077763841 0.67199999 -0.011782399 1.3733533e-38 386 250
0.078942075 0.67199999 -0.011782399 1.3088164e-38 387 250
0.080120318 0.67199999 -0.011782399 9.863468e-39 388 250
0.08129856 0.67199999 -0.011782399 1.1891772e-38 389 250
0.082476802 0.67199999 -0.011782399 1.4104817e-38 390 250
0.083904013 0.67400002 -0.011817466 1.3551644e-38 391 250
-0.10313807 0.77399999 -0.014927879 1.7339653e-38 244 251
-0.10164949 0.773 -0.014908593 1.761624e-38 245 251
-0.10003468 0.77100003 -0.01487002 1.7342155e-38 246 251
-0.098426871 0.76899999 -0.014831445 1.4023112e-38 247 251
-0.096826084 0.76700002 -0.014792874 1.5668923e-38 248 251
-0.095481269 0.76700002 -0.014792874 1.5115749e-38 249 251
-0.094136469 0.76700002 -0.014792874 1.5483063e-38 250 251
-0.092670672 0.76599997 -0.014773586 1.5298672e-38 251 251
-0.091089167 0.764 -0.014735013 1.5481253e-38 252 251
-0.089749627 0.764 -0.014735013 1.4835883e-38 253 251
-0.088178635 0.76200002 -0.01469644 1.4003952e-38 254 251
-0.086728632 0.76099998 -0.014677152 1.2897604e-38 255 251
-0.085169919 0.759 -0.014638579 1.2344396e-38 256 251
-0.083618224 0.75700003 -0.014600007 1.1791222e-38 257 251
-0.082073532 0.755 -0.014561433 1.2528407e-38 258 251
-0.080642812 0.75400001 -0.014542146 1.3265973e-38 259 251
-0.079110399 0.75199997 -0.014503572 1.3542934e-38 260 251
-0.077791892 0.75199997 -0.014503572 1.3635132e-38 261 251
-0.076269999 0.75 -0.014465 1.3818444e-38 262 251
-0.074655175 0.74699998 -0.014407139 1.3726247e-38 263 251
-0.073247254 0.74599999 -0.014387853 1.363548e-38 264 251
-0.071746401 0.74400002 -0.01434928 1.3543285e-38 265 251
-0.07025256 0.74199998 -0.014310705 1.3540781e-38 266 251
-0.068951584 0.74199998 -0.014310705 1.418615e-38 267 251
-0.06737709 0.73900002 -0.014252847 1.4836581e-38 268 251
-0.066081382 0.73900002 -0.014252847 1.4929135e-38 269 251
-0.064697996 0.73799998 -0.014233559 1.4745485e-38 270 251
-0.063232213 0.736 -0.014194986 1.4837681e-38 271 251
-0.061773442 0.73400003 -0.014156413 1.4837696e-38 272 251
-0.060404085 0.73299998 -0.014137126 1.4929893e-38 273 251
-0.058957584 0.73100001 -0.014098554 1.4836246e-38 274 251
-0.057597004 0.73000002 -0.014079267 1.2623911e-38 275 251
-0.056317069 0.73000002 -0.014079267 1.3635541e-38 276 251
-0.054886345 0.72799999 -0.014040692 1.492628e-38 277 251
-0.053536277 0.727 -0.014021406 1.4835896e-38 278 251
-0.052261602 0.727 -0.014021406 1.4928091e-38 279 251
-0.050846666 0.72500002 -0.013982833 1.5021362e-38 280 251
-0.049438741 0.72299999 -0.01394426 1.5021362e-38 281 251
-0.0479712 0.72000003 -0.0138864 1.483805e-38 282 251
-0.046643924 0.71899998 -0.013867113 1.4745495e-38 283 251
-0.045257039 0.71700001 -0.013828539 1.4654359e-38 284 251
-0.043938532 0.71600002 -0.013809253 1.3455816e-38 285 251
-0.042563915 0.71399999 -0.01377068 1.3820598e-38 286 251
-0.041312039 0.71399999 -0.01377068 1.271425e-38 287 251
-0.040004052 0.713 -0.013751393 1.3724064e-38 288 251
-0.038645219 0.71100003 -0.01371282 1.3724064e-38 289 251
-0.037398599 0.71100003 -0.01371282 1.3632231e-38 290 251
-0.036101133 0.70999998 -0.013693533 1.3632231e-38 291 251
-0.034856264 0.70999998 -0.013693533 1.3725175e-38 292 251
-0.033516716 0.708 -0.013654959 1.3909926e-38 293 251
-0.03227536 0.708 -0.013654959 9.4824186e-39 294 251
-0.030990168 0.70700002 -0.013635674 7.638506e-39 295 251
-0.029624319 0.704 -0.013577812 6.8062482e-39 296 251
-0.028268991 0.70099998 -0.013519952 6.8984438e-39 297 251
-0.027001332 0.69999999 -0.013500666 6.8066139e-39 298 251
-0.025773998 0.69999999 -0.013500666 6.7144183e-39 299 251
-0.024476532 0.69800001 -0.013462093 6.7137008e-39 300 251
-0.023252707 0.69800001 -0.013462093 6.8058978e-39 301 251
-0.02202888 0.69800001 -0.013462093 5.9804518e-39 302 251
-0.020775247 0.69700003 -0.013442807 5.9804518e-39 303 251
-0.019525118 0.69599998 -0.013423519 5.1546568e-39 304 251
-0.0182522 0.69400001 -0.013384946 5.2468524e-39 305 251
-0.017035386 0.69400001 -0.013384946 4.5132502e-39 306 251
-0.015795778 0.69300002 -0.01336566 4.6054473e-39 307 251
-0.014580719 0.69300002 -0.01336566 4.9727809e-39 308 251
-0.013327086 0.69099998 -0.013327086 5.0649765e-39 309 251
-0.012097999 0.69 -0.0133078 5.3404718e-39 310 251
-0.010856641 0.68800002 -0.013269227 5.2482761e-39 311 251
-0.0096363192 0.68699998 -0.013249939 5.70566e-39 312 251
-0.0084195063 0.68599999 -0.013230653 5.6134643e-39 313 251
-0.0071956799 0.68400002 -0.01319208 5.8875373e-39 314 251
-0.0059876335 0.68300003 -0.013172794 6.0715684e-39 315 251
-0.004783093 0.68199998 -0.013153506 6.4381901e-39 316 251
-0.00358732 0.68199998 -0.013153506 6.6222213e-39 317 251
-0.0023845332 0.68000001 -0.013114933 6.7140539e-39 318 251
-0.0011922666 0.68000001 -0.013114933 6.6214996e-39 319 251
0 0.67900002 -0.013095647 6.4381873e-39 320 251
0.0011887599 0.67799997 -0.013076359 6.0694048e-39 321 251
0.0023705065 0.676 -0.013037786 4.9638055e-39 322 251
0.0035557596 0.676 -0.013037786 6.1619886e-39 323 251
0.0047339997 0.67500001 -0.0130185 8.1096225e-39 324 251
0.0058911997 0.67199999 -0.012960639 1.1244273e-38 325 251
0.0070694401 0.67199999 -0.012960639 1.3632336e-38 326 251
0.0082354061 0.671 -0.012941353 1.2249401e-38 327 251
0.0093698129 0.66799998 -0.012883492 1.3611066e-38 328 251
0.01054104 0.66799998 -0.012883492 1.2135934e-38 329 251
0.011694733 0.667 -0.012864206 1.3785376e-38 330 251
0.012864206 0.667 -0.012864206 1.3416595e-38 331 251
0.014033679 0.667 -0.012864206 1.3965101e-38 332 251
0.01518036 0.66600001 -0.01284492 1.3965101e-38 333 251
0.016298985 0.66399997 -0.012806346 1.3782859e-38 334 251
0.017436899 0.66299999 -0.012787059 1.3782859e-38 335 251
0.018571306 0.662 -0.012767773 1.3874693e-38 336 251
0.019702207 0.66100001 -0.012748486 1.3782499e-38 337 251
0.02086116 0.66100001 -0.012748486 1.3965094e-38 338 251
0.021953486 0.65899998 -0.012709912 1.3965094e-38 339 251
0.023073865 0.65799999 -0.012690626 1.3873617e-38 340 251
0.02422756 0.65799999 -0.012690626 1.3873617e-38 341 251
0.025342681 0.65700001 -0.01267134 1.3873258e-38 342 251
0.026494619 0.65700001 -0.01267134 1.3965453e-38 343 251
0.027562398 0.65499997 -0.012632766 1.3964735e-38 344 251
0.028710833 0.65499997 -0.012632766 1.3964735e-38 345 251
0.029813679 0.65399998 -0.012613479 1.3781783e-38 346 251
0.03091302 0.653 -0.012594193 1.4519708e-38 347 251
0.032008853 0.65200001 -0.012574906 1.4172168e-38 348 251
0.033050328 0.64999998 -0.012536332 1.5370711e-38 349 251
0.034189999 0.64999998 -0.012536332 1.4274819e-38 350 251
0.03527531 0.64899999 -0.012517046 1.1416395e-38 351 251
0.03635712 0.648 -0.01249776 8.0008397e-39 352 251
0.03743542 0.64700001 -0.012478473 6.3413198e-39 353 251
0.038510215 0.64600003 -0.012459187 6.3438267e-39 354 251
0.03952013 0.64399999 -0.012420613 6.6200548e-39 355 251
0.040586159 0.64300001 -0.012401327 6.8055209e-39 356 251
0.041713554 0.64300001 -0.012401327 6.8977165e-39 357 251
0.04277432 0.64200002 -0.01238204 7.7235143e-39 358 251
0.043899957 0.64200002 -0.01238204 7.907907e-39 359 251
0.045025598 0.64200002 -0.01238204 8.0004585e-39 360 251
0.046079349 0.64099997 -0.012362752 8.1844897e-39 361 251
0.047129598 0.63999999 -0.012343466 7.817512e-39 362 251
0.048100945 0.63800001 -0.012304893 8.0015432e-39 363 251
0.049219571 0.63800001 -0.012304893 8.0015432e-39 364 251
0.050338201 0.63800001 -0.012304893 7.4483694e-39 365 251
0.051456824 0.63800001 -0.012304893 7.08104e-39 366 251
0.052740265 0.63999999 -0.012343466 1.2243994e-38 367 251
0.053862397 0.63999999 -0.012343466 1.1337522e-38 368 251
0.055156358 0.64200002 -0.01238204 1.1982891e-38 369 251
0.056457333 0.64399999 -0.012420613 1.1707028e-38 370 251
0.057765324 0.64600003 -0.012459187 1.1799223e-38 371 251
0.058989145 0.64700001 -0.012478473 1.2257683e-38 372 251
0.060309403 0.64899999 -0.012517046 1.2349879e-38 373 251
0.061541997 0.64999998 -0.012536332 1.2258046e-38 374 251
0.062874533 0.65200001 -0.012574906 1.2350602e-38 375 251
0.064115889 0.653 -0.012594193 1.2442795e-38 376 251
0.065460697 0.65499997 -0.012632766 1.271974e-38 377 251
0.066914216 0.65799999 -0.012690626 1.2629338e-38 378 251
0.068067901 0.65799999 -0.012690626 1.2905924e-38 379 251
0.069326796 0.65899998 -0.012709912 1.2813007e-38 380 251
0.071017005 0.66399997 -0.012806346 1.2720809e-38 381 251
0.07239864 0.66600001 -0.01284492 1.2260554e-38 382 251
0.073787279 0.66799998 -0.012883492 1.2537141e-38 383 251
0.075295143 0.671 -0.012941353 1.3364031e-38 384 251
0.076585598 0.67199999 -0.012960639 1.3548422e-38 385 251
0.077763841 0.67199999 -0.012960639 1.3732815e-38 386 251
0.078942075 0.67199999 -0.012960639 1.3364031e-38 387 251
0.080120318 0.67199999 -0.012960639 1.0873649e-38 388 251
0.08129856 0.67199999 -0.012960639 1.2625724e-38 389 251
0.082722262 0.67400002 -0.012999214 1.5206473e-38 390 251
-0.10313807 0.77399999 -0.016284959 1.8165451e-38 244 252
-0.10164949 0.773 -0.016263919 1.8718266e-38 245 252
-0.10029417 0.773 -0.016263919 1.8260149e-38 246 252
-0.098682858 0.77100003 -0.016221842 1.466416e-38 247 252
-0.097078554 0.76899999 -0.016179759 1.5393778e-38 248 252
-0.095730245 0.76899999 -0.016179759 1.4748408e-38 249 252
-0.094136469 0.76700002 -0.01613768 1.5667105e-38 250 252
-0.092670672 0.76599997 -0.016116638 1.5851495e-38 251 252
-0.091327623 0.76599997 -0.016116638 1.5942969e-38 252 252
-0.089749627 0.764 -0.016074561 1.6035165e-38 253 252
-0.088410079 0.764 -0.016074561 1.5758575e-38 254 252
-0.086842604 0.76200002 -0.01603248 1.5297956e-38 255 252
-0.085394338 0.76099998 -0.016011439 1.4468526e-38 256 252
-0.083839141 0.759 -0.015969358 1.3454015e-38 257 252
-0.082290947 0.75700003 -0.015927281 1.3360358e-38 258 252
-0.080642812 0.75400001 -0.01586416 1.3175968e-38 259 252
-0.079320803 0.75400001 -0.01586416 1.3267086e-38 260 252
-0.077791892 0.75199997 -0.015822079 1.3359283e-38 261 252
-0.076269999 0.75 -0.01578 1.3542949e-38 262 252
-0.074855059 0.74900001 -0.01575896 1.3635144e-38 263 252
-0.073345438 0.74699998 -0.015716879 1.3911005e-38 264 252
-0.07193926 0.74599999 -0.015695838 1.3911005e-38 265 252
-0.070441924 0.74400002 -0.015653761 1.3076588e-38 266 252
-0.068951584 0.74199998 -0.015611678 1.409038e-38 267 252
-0.06737709 0.73900002 -0.01554856 1.5205386e-38 268 252
-0.066081382 0.73900002 -0.01554856 1.5389417e-38 269 252
-0.064697996 0.73799998 -0.015527519 1.4837331e-38 270 252
-0.063232213 0.736 -0.015485439 1.4837331e-38 271 252
-0.061773442 0.73400003 -0.01544336 1.48384e-38 272 252
-0.060404085 0.73299998 -0.015422319 1.48384e-38 273 252
-0.058957584 0.73100001 -0.01538024 1.5021344e-38 274 252
-0.057597004 0.73000002 -0.0153592 1.299304e-38 275 252
-0.056317069 0.73000002 -0.0153592 1.2991617e-38 276 252
-0.054886345 0.72799999 -0.01531712 1.4558583e-38 277 252
-0.053609919 0.72799999 -0.01531712 1.4377804e-38 278 252
-0.052261602 0.727 -0.015296079 1.4377804e-38 279 252
-0.050846666 0.72500002 -0.015254001 1.5021006e-38 280 252
-0.0495755 0.72500002 -0.015254001 1.5021006e-38 281 252
-0.048104454 0.722 -0.015190879 1.5021715e-38 282 252
-0.0467088 0.72000003 -0.0151488 1.4745129e-38 283 252
-0.045257039 0.71700001 -0.015085679 1.4561069e-38 284 252
-0.043938532 0.71600002 -0.01506464 1.3178134e-38 285 252
-0.042683143 0.71600002 -0.01506464 1.3633329e-38 286 252
-0.041312039 0.71399999 -0.015022559 1.3264907e-38 287 252
-0.040004052 0.713 -0.015001519 1.372336e-38 288 252
-0.038753927 0.713 -0.015001519 1.372336e-38 289 252
-0.037398599 0.71100003 -0.014959441 1.3723713e-38 290 252
-0.036101133 0.70999998 -0.014938398 1.3723713e-38 291 252
-0.034856264 0.70999998 -0.014938398 1.3540433e-38 292 252
-0.033516716 0.708 -0.01489632 1.3540433e-38 293 252
-0.03227536 0.708 -0.01489632 8.283525e-39 294 252
-0.031034 0.708 -0.01489632 6.7162007e-39 295 252
-0.029708479 0.70599997 -0.014854239 7.3594177e-39 296 252
-0.028389972 0.704 -0.014812159 7.2672221e-39 297 252
-0.027039904 0.70099998 -0.014749039 7.1743104e-39 298 252
-0.025773998 0.69999999 -0.014727999 7.0821148e-39 299 252
-0.024546666 0.69999999 -0.014727999 6.989566e-39 300 252
-0.023252707 0.69800001 -0.01468592 6.989566e-39 301 252
-0.02202888 0.69800001 -0.01468592 5.9808161e-39 302 252
-0.020805053 0.69800001 -0.01468592 5.8886191e-39 303 252
-0.019553173 0.69700003 -0.01466488 5.0639045e-39 304 252
-0.018304799 0.69599998 -0.014643839 5.0639045e-39 305 252
-0.017035386 0.69400001 -0.01460176 5.0639073e-39 306 252
-0.015795778 0.69300002 -0.014580719 4.9717103e-39 307 252
-0.014580719 0.69300002 -0.014580719 5.2472168e-39 308 252
-0.01336566 0.69300002 -0.014580719 5.3397711e-39 309 252
-0.012115533 0.69099998 -0.014538639 5.3401214e-39 310 252
-0.010888199 0.69 -0.014517599 5.3401214e-39 311 252
-0.0096503468 0.68800002 -0.014475521 5.522712e-39 312 252
-0.0084317802 0.68699998 -0.014454478 5.522712e-39 313 252
-0.0072167199 0.68599999 -0.01443344 5.9811692e-39 314 252
-0.0059964 0.68400002 -0.01439136 5.9811692e-39 315 252
-0.0047901068 0.68300003 -0.014370319 6.5311032e-39 316 252
-0.00358732 0.68199998 -0.01434928 6.4389062e-39 317 252
-0.0023845332 0.68000001 -0.014307199 6.8066041e-39 318 252
-0.0011922666 0.68000001 -0.014307199 6.7140483e-39 319 252
0 0.67900002 -0.01428616 6.8051678e-39 320 252
0.0011887599 0.67799997 -0.014265119 6.6211366e-39 321 252
0.0023705065 0.676 -0.014223038 5.7931893e-39 322 252
0.0035557596 0.676 -0.014223038 5.6084393e-39 323 252
0.0047410131 0.676 -0.014223038 4.6962164e-39 324 252
0.0059087332 0.67400002 -0.01418096 8.2918459e-39 325 252
0.0070904801 0.67400002 -0.01418096 1.1793841e-38 326 252
0.00824768 0.67199999 -0.01413888 1.243921e-38 327 252
0.0094118929 0.671 -0.01411784 1.4084644e-38 328 252
0.01054104 0.66799998 -0.014054719 1.1042188e-38 329 252
0.011712266 0.66799998 -0.014054719 1.3418027e-38 330 252
0.012864206 0.667 -0.014033679 1.3418027e-38 331 252
0.014033679 0.667 -0.014033679 1.3875052e-38 332 252
0.01518036 0.66600001 -0.014012639 1.3782858e-38 333 252
0.016348081 0.66600001 -0.014012639 1.3874335e-38 334 252
0.017436899 0.66299999 -0.013949519 1.378214e-38 335 252
0.018571306 0.662 -0.01392848 1.396617e-38 336 252
0.019702207 0.66100001 -0.01390744 1.3873617e-38 337 252
0.02086116 0.66100001 -0.01390744 1.3965094e-38 338 252
0.022020113 0.66100001 -0.01390744 1.4149841e-38 339 252
0.023108931 0.65899998 -0.013865359 1.378214e-38 340 252
0.02422756 0.65799999 -0.01384432 1.3689946e-38 341 252
0.025342681 0.65700001 -0.013823279 1.3874339e-38 342 252
0.026494619 0.65700001 -0.013823279 1.3689587e-38 343 252
0.027562398 0.65499997 -0.013781199 1.3597041e-38 344 252
0.028710833 0.65499997 -0.013781199 1.3597041e-38 345 252
0.029813679 0.65399998 -0.013760159 1.2863439e-38 346 252
0.03091302 0.653 -0.013739119 1.4154178e-38 347 252
0.032008853 0.65200001 -0.01371808 1.3995695e-38 348 252
0.033152029 0.65200001 -0.01371808 1.5009487e-38 349 252
0.034189999 0.64999998 -0.013675999 1.3636652e-38 350 252
0.03527531 0.64899999 -0.013654959 9.5800442e-39 351 252
0.03635712 0.648 -0.01363392 7.2643733e-39 352 252
0.03743542 0.64700001 -0.013612879 6.7111995e-39 353 252
0.038510215 0.64600003 -0.01359184 6.6197045e-39 354 252
0.039642867 0.64600003 -0.01359184 6.8040958e-39 355 252
0.04064928 0.64399999 -0.013549759 6.6218527e-39 356 252
0.041778423 0.64399999 -0.013549759 6.8066041e-39 357 252
0.042840946 0.64300001 -0.01352872 7.5405664e-39 358 252
0.043899957 0.64200002 -0.01350768 7.632762e-39 359 252
0.045025598 0.64200002 -0.01350768 8.1841337e-39 360 252
0.046151239 0.64200002 -0.01350768 8.1841337e-39 361 252
0.047203235 0.64099997 -0.013486639 8.2766881e-39 362 252
0.048251729 0.63999999 -0.013465599 8.2766881e-39 363 252
0.049373865 0.63999999 -0.013465599 8.0930227e-39 364 252
0.050574899 0.64099997 -0.013486639 7.632046e-39 365 252
0.051698782 0.64099997 -0.013486639 6.8973662e-39 366 252
0.052822668 0.64099997 -0.013486639 1.2244714e-38 367 252
0.053946555 0.64099997 -0.013486639 1.1429715e-38 368 252
0.055156358 0.64200002 -0.01350768 1.1890693e-38 369 252
0.056457333 0.64399999 -0.013549759 1.1523718e-38 370 252
0.057765324 0.64600003 -0.01359184 1.1707749e-38 371 252
0.058989145 0.64700001 -0.013612879 1.1981822e-38 372 252
0.060309403 0.64899999 -0.013654959 1.1981822e-38 373 252
0.061541997 0.64999998 -0.013675999 1.2259485e-38 374 252
0.062874533 0.65200001 -0.01371808 1.2351681e-38 375 252
0.064214081 0.65399998 -0.013760159 1.2536062e-38 376 252
0.065660581 0.65700001 -0.013823279 1.2905205e-38 377 252
0.066914216 0.65799999 -0.01384432 1.2630057e-38 378 252
0.068171352 0.65899998 -0.013865359 1.2537862e-38 379 252
0.069326796 0.65899998 -0.013865359 1.2535712e-38 380 252
0.071017005 0.66399997 -0.013970559 1.2166931e-38 381 252
0.07239864 0.66600001 -0.014012639 1.2074385e-38 382 252
0.073787279 0.66799998 -0.014054719 1.2258776e-38 383 252
0.075295143 0.671 -0.01411784 1.2536086e-38 384 252
0.076813534 0.67400002 -0.01418096 1.2812672e-38 385 252
0.077995278 0.67400002 -0.01418096 1.3273274e-38 386 252
0.078942075 0.67199999 -0.01413888 1.3273274e-38 387 252
0.079881869 0.67000002 -0.014096799 1.1425739e-38 388 252
0.081056595 0.67000002 -0.014096799 1.3177097e-38 389 252
0.082844995 0.67500001 -0.014202001 1.5851124e-38 390 252
-0.10503518 0.778 -0.017733213 1.9637682e-38 243 253
-0.10313807 0.77399999 -0.01764204 1.9910663e-38 244 253
-0.10164949 0.773 -0.017619247 1.972627e-38 245 253
-0.10029417 0.773 -0.017619247 1.9725183e-38 246 253
-0.098682858 0.77100003 -0.01757366 1.640614e-38 247 253
-0.09733104 0.77100003 -0.01757366 1.5207572e-38 248 253
-0.095730245 0.76899999 -0.017528072 1.4838789e-38 249 253
-0.094136469 0.76700002 -0.017482487 1.5941167e-38 250 253
-0.092791654 0.76700002 -0.017482487 1.6125919e-38 251 253
-0.091327623 0.76599997 -0.017459691 1.5667814e-38 252 253
-0.089749627 0.764 -0.017414106 1.5483063e-38 253 253
-0.088410079 0.764 -0.017414106 1.5022445e-38 254 253
-0.086842604 0.76200002 -0.01736852 1.5298672e-38 255 253
-0.085394338 0.76099998 -0.017345725 1.5483063e-38 256 253
-0.083839141 0.759 -0.017300138 1.5483063e-38 257 253
-0.082290947 0.75700003 -0.017254554 1.5391221e-38 258 253
-0.080749765 0.755 -0.017208965 1.4930244e-38 259 253
-0.079320803 0.75400001 -0.017186172 1.4745129e-38 260 253
-0.077791892 0.75199997 -0.017140586 1.4560738e-38 261 253
-0.076473378 0.75199997 -0.017140586 1.4560372e-38 262 253
-0.074954994 0.75 -0.017095 1.4468175e-38 263 253
-0.073541813 0.74900001 -0.017072206 1.5111378e-38 264 253
-0.07193926 0.74599999 -0.017003827 1.4926627e-38 265 253
-0.070441924 0.74400002 -0.016958239 1.3167727e-38 266 253
-0.068951584 0.74199998 -0.016912652 1.3536508e-38 267 253
-0.067559443 0.741 -0.016889861 1.5203955e-38 268 253
-0.066081382 0.73900002 -0.016844273 1.5388348e-38 269 253
-0.064697996 0.73799998 -0.016821479 1.5111757e-38 270 253
-0.063232213 0.736 -0.016775893 1.5203952e-38 271 253
-0.061773442 0.73400003 -0.016730307 1.4930594e-38 272 253
-0.060404085 0.73299998 -0.016707512 1.4930594e-38 273 253
-0.059118889 0.73299998 -0.016707512 1.5022793e-38 274 253
-0.057675898 0.73100001 -0.016661927 1.3639858e-38 275 253
-0.056317069 0.73000002 -0.016639132 1.2807595e-38 276 253
-0.054886345 0.72799999 -0.016593546 1.3452964e-38 277 253
-0.053609919 0.72799999 -0.016593546 1.4470356e-38 278 253
-0.052261602 0.727 -0.016570752 1.4562551e-38 279 253
-0.050986931 0.727 -0.016570752 1.5021362e-38 280 253
-0.0495755 0.72500002 -0.016525166 1.5113559e-38 281 253
-0.048171077 0.72299999 -0.01647958 1.5022795e-38 282 253
-0.0467088 0.72000003 -0.0164112 1.4377426e-38 283 253
-0.045383278 0.71899998 -0.016388407 1.437451e-38 284 253
-0.043999899 0.71700001 -0.016342819 1.3083771e-38 285 253
-0.042683143 0.71600002 -0.016320027 1.4091787e-38 286 253
-0.041312039 0.71399999 -0.016274439 1.4091787e-38 287 253
-0.040060159 0.71399999 -0.016274439 1.3540415e-38 288 253
-0.038753927 0.713 -0.016251646 1.3540415e-38 289 253
-0.037398599 0.71100003 -0.01620606 1.3633329e-38 290 253
-0.036151983 0.71100003 -0.01620606 1.4094308e-38 291 253
-0.034856264 0.70999998 -0.016183265 1.2986903e-38 292 253
-0.033611398 0.70999998 -0.016183265 1.114335e-38 293 253
-0.03227536 0.708 -0.01613768 6.622203e-39 294 253
-0.031034 0.708 -0.01613768 6.7147574e-39 295 253
-0.029750559 0.70700002 -0.016114887 7.4523364e-39 296 253
-0.028470624 0.70599997 -0.016092092 7.2679438e-39 297 253
-0.027155625 0.704 -0.016046507 7.1750293e-39 298 253
-0.025810819 0.70099998 -0.015978126 7.1750293e-39 299 253
-0.024546666 0.69999999 -0.015955333 6.6236576e-39 300 253
-0.023252707 0.69800001 -0.015909746 6.6236576e-39 301 253
-0.02202888 0.69800001 -0.015909746 5.6149105e-39 302 253
-0.020805053 0.69800001 -0.015909746 5.6149105e-39 303 253
-0.019553173 0.69700003 -0.015886955 5.0646234e-39 304 253
-0.018304799 0.69599998 -0.015864158 5.156819e-39 305 253
-0.017035386 0.69400001 -0.015818574 4.88203e-39 306 253
-0.015818574 0.69400001 -0.015818574 4.6979988e-39 307 253
-0.014580719 0.69300002 -0.015795778 5.0649793e-39 308 253
-0.01336566 0.69300002 -0.015795778 5.1571749e-39 309 253
-0.012115533 0.69099998 -0.015750192 5.2497237e-39 310 253
-0.010888199 0.69 -0.015727401 5.3419193e-39 311 253
-0.0096503468 0.68800002 -0.015681813 5.2497237e-39 312 253
-0.0084317802 0.68699998 -0.015659019 5.2497237e-39 313 253
-0.0072272392 0.68699998 -0.015659019 5.7081781e-39 314 253
-0.0060139326 0.68599999 -0.015636226 5.7081781e-39 315 253
-0.0047901068 0.68300003 -0.015567848 6.4417803e-39 316 253
-0.00358732 0.68199998 -0.015545053 6.1651948e-39 317 253
-0.0023915465 0.68199998 -0.015545053 6.8062482e-39 318 253
-0.0011922666 0.68000001 -0.015499466 6.8062482e-39 319 253
0 0.67900002 -0.015476674 6.7137008e-39 320 253
0.0011887599 0.67799997 -0.015453878 6.6215052e-39 321 253
0.0023775198 0.67799997 -0.015453878 5.9783008e-39 322 253
0.0035662798 0.67799997 -0.015453878 5.7939095e-39 323 253
0.0047410131 0.676 -0.015408293 4.5042623e-39 324 253
0.0059174998 0.67500001 -0.0153855 3.9510885e-39 325 253
0.0071010003 0.67500001 -0.0153855 4.8874474e-39 326 253
0.00824768 0.67199999 -0.01531712 9.5894245e-39 327 253
0.0094118929 0.671 -0.015294326 1.3260686e-38 328 253
0.01058838 0.671 -0.015294326 1.2430926e-38 329 253
0.011712266 0.66799998 -0.015225946 1.3615034e-38 330 253
0.012883492 0.66799998 -0.015225946 1.1863317e-38 331 253
0.014033679 0.667 -0.015203152 1.3329437e-38 332 253
0.01518036 0.66600001 -0.01518036 1.2407841e-38 333 253
0.016348081 0.66600001 -0.01518036 1.3783935e-38 334 253
0.0174632 0.66399997 -0.015134773 1.3783935e-38 335 253
0.018599359 0.66299999 -0.015111978 1.3875769e-38 336 253
0.019732011 0.662 -0.015089186 1.3783217e-38 337 253
0.02086116 0.66100001 -0.015066394 1.3965811e-38 338 253
0.022020113 0.66100001 -0.015066394 1.3965811e-38 339 253
0.023108931 0.65899998 -0.015020805 1.3783217e-38 340 253
0.02422756 0.65799999 -0.014998012 1.3875411e-38 341 253
0.025381252 0.65799999 -0.014998012 1.3873258e-38 342 253
0.026494619 0.65700001 -0.01497522 1.3965454e-38 343 253
0.027562398 0.65499997 -0.014929632 1.3598843e-38 344 253
0.028710833 0.65499997 -0.014929632 1.3321896e-38 345 253
0.029813679 0.65399998 -0.014906839 1.0377411e-38 346 253
0.03091302 0.653 -0.014884046 1.1575219e-38 347 253
0.032008853 0.65200001 -0.014861252 1.3263165e-38 348 253
0.033152029 0.65200001 -0.014861252 1.4185122e-38 349 253
0.034189999 0.64999998 -0.014815666 1.1703062e-38 350 253
0.035329666 0.64999998 -0.014815666 5.3415634e-39 351 253
0.036413226 0.64899999 -0.014792874 4.408108e-39 352 253
0.03743542 0.64700001 -0.014747286 6.34314e-39 353 253
0.038569827 0.64700001 -0.014747286 6.2527269e-39 354 253
0.039642867 0.64600003 -0.014724494 6.5289536e-39 355 253
0.040775519 0.64600003 -0.014724494 6.8055181e-39 356 253
0.041778423 0.64399999 -0.014678906 6.9902681e-39 357 253
0.042907573 0.64399999 -0.014678906 7.5409195e-39 358 253
0.043968339 0.64300001 -0.014656113 7.8178652e-39 359 253
0.045025598 0.64200002 -0.01463332 8.1844869e-39 360 253
0.046151239 0.64200002 -0.01463332 8.2766825e-39 361 253
0.047203235 0.64099997 -0.014610525 8.2766853e-39 362 253
0.048327126 0.64099997 -0.014610525 8.2766853e-39 363 253
0.049451008 0.64099997 -0.014610525 8.0930199e-39 364 253
0.050574899 0.64099997 -0.014610525 7.5398461e-39 365 253
0.051698782 0.64099997 -0.014610525 6.8066139e-39 366 253
0.052822668 0.64099997 -0.014610525 1.1969569e-38 367 253
0.05403072 0.64200002 -0.01463332 1.1245326e-38 368 253
0.05524227 0.64300001 -0.014656113 1.161411e-38 369 253
0.056457333 0.64399999 -0.014678906 1.1706309e-38 370 253
0.057765324 0.64600003 -0.014724494 1.189034e-38 371 253
0.058989145 0.64700001 -0.014747286 1.1980375e-38 372 253
0.060402326 0.64999998 -0.014815666 1.2625744e-38 373 253
0.061731357 0.65200001 -0.014861252 1.2628614e-38 374 253
0.062970966 0.653 -0.014884046 1.2997398e-38 375 253
0.064214081 0.65399998 -0.014906839 1.2905921e-38 376 253
0.065660581 0.65700001 -0.01497522 1.2444943e-38 377 253
0.066914216 0.65799999 -0.014998012 1.2442076e-38 378 253
0.068171352 0.65899998 -0.015020805 1.2442076e-38 379 253
0.069326796 0.65899998 -0.015020805 1.2167287e-38 380 253
0.071017005 0.66399997 -0.015134773 1.1982535e-38 381 253
0.072507344 0.667 -0.015203152 1.2165482e-38 382 253
0.073787279 0.66799998 -0.015225946 1.2165482e-38 383 253
0.075295143 0.671 -0.015294326 1.1338968e-38 384 253
0.076813534 0.67400002 -0.015362706 1.1707749e-38 385 253
0.077995278 0.67400002 -0.015362706 1.2629344e-38 386 253
0.079177029 0.67400002 -0.015362706 1.2813375e-38 387 253
0.079881869 0.67000002 -0.015271533 1.1333188e-38 388 253
0.081056595 0.67000002 -0.015271533 1.3453687e-38 389 253
-0.10476518 0.77600002 -0.019048214 2.0642811e-38 243 254
-0.10313807 0.77399999 -0.018999118 2.1460663e-38 244 254
-0.10164949 0.773 -0.018974574 2.0262121e-38 245 254
-0.10029417 0.773 -0.018974574 2.1544577e-38 246 254
-0.098938845 0.773 -0.018974574 1.8963099e-38 247 254
-0.09758351 0.773 -0.018974574 1.4003602e-38 248 254
-0.095979221 0.77100003 -0.018925481 1.4648971e-38 249 254
-0.094381928 0.76899999 -0.018876385 1.4745132e-38 250 254
-0.092791654 0.76700002 -0.018827293 1.5482697e-38 251 254
-0.091327623 0.76599997 -0.018802745 1.5483419e-38 252 254
-0.089984566 0.76599997 -0.018802745 1.5483419e-38 253 254
-0.088410079 0.764 -0.018753653 1.5116426e-38 254 254
-0.086842604 0.76200002 -0.01870456 1.5116426e-38 255 254
-0.085394338 0.76099998 -0.018680012 1.5483416e-38 256 254
-0.083839141 0.759 -0.01863092 1.5575613e-38 257 254
-0.082290947 0.75700003 -0.018581826 1.5483063e-38 258 254
-0.080749765 0.755 -0.018532733 1.5390867e-38 259 254
-0.079320803 0.75400001 -0.018508185 1.5483063e-38 260 254
-0.077998787 0.75400001 -0.018508185 1.5390867e-38 261 254
-0.076473378 0.75199997 -0.018459093 1.5298306e-38 262 254
-0.074954994 0.75 -0.018409999 1.5021359e-38 263 254
-0.073541813 0.74900001 -0.018385453 1.5298303e-38 264 254
-0.072035693 0.74699998 -0.018336359 1.5759281e-38 265 254
-0.070631281 0.74599999 -0.018311813 1.4280571e-38 266 254
-0.069137439 0.74400002 -0.01826272 1.1976039e-38 267 254
-0.067650609 0.74199998 -0.018213626 1.3085633e-38 268 254
-0.066081382 0.73900002 -0.018139986 1.4836992e-38 269 254
-0.064785667 0.73900002 -0.018139986 1.5204682e-38 270 254
-0.063404039 0.73799998 -0.018115439 1.5112485e-38 271 254
-0.061941758 0.736 -0.018066347 1.5113545e-38 272 254
-0.060486492 0.73400003 -0.018017253 1.5205742e-38 273 254
-0.059118889 0.73299998 -0.017992707 1.5295782e-38 274 254
-0.057833698 0.73299998 -0.017992707 1.4650413e-38 275 254
-0.056394216 0.73100001 -0.017943613 1.3819233e-38 276 254
-0.055037133 0.73000002 -0.017919067 1.3173863e-38 277 254
-0.053609919 0.72799999 -0.017869972 1.3916466e-38 278 254
-0.052333489 0.72799999 -0.017869972 1.4838064e-38 279 254
-0.050986931 0.727 -0.017845426 1.483805e-38 280 254
-0.0495755 0.72500002 -0.017796334 1.4930247e-38 281 254
-0.048171077 0.72299999 -0.017747238 1.5206824e-38 282 254
-0.046838548 0.722 -0.017722692 1.419303e-38 283 254
-0.045383278 0.71899998 -0.017649053 1.4005008e-38 284 254
-0.043999899 0.71700001 -0.017599959 1.3267083e-38 285 254
-0.042683143 0.71600002 -0.017575413 1.4184333e-38 286 254
-0.041427758 0.71600002 -0.017575413 1.3999941e-38 287 254
-0.040060159 0.71399999 -0.017526319 1.3541484e-38 288 254
-0.038808275 0.71399999 -0.017526319 1.363368e-38 289 254
-0.037503798 0.713 -0.017501773 1.3451089e-38 290 254
-0.036151983 0.71100003 -0.01745268 1.3451089e-38 291 254
-0.034905359 0.71100003 -0.01745268 1.1325943e-38 292 254
-0.033611398 0.70999998 -0.017428132 9.2976391e-39 293 254
-0.032366529 0.70999998 -0.017428132 6.8980697e-39 294 254
-0.031034 0.708 -0.017379038 7.2668536e-39 295 254
-0.02979264 0.708 -0.017379038 7.3594177e-39 296 254
-0.028510952 0.70700002 -0.017354494 7.3594177e-39 297 254
-0.027155625 0.704 -0.017280852 7.5427328e-39 298 254
-0.025884461 0.70300001 -0.017256306 7.2665061e-39 299 254
-0.024581732 0.70099998 -0.017207211 6.6240233e-39 300 254
-0.023319334 0.69999999 -0.017182667 6.6240233e-39 301 254
-0.022091998 0.69999999 -0.017182667 5.3397683e-39 302 254
-0.020864666 0.69999999 -0.017182667 5.4319639e-39 303 254
-0.019581227 0.69800001 -0.017133573 4.9735095e-39 304 254
-0.018304799 0.69599998 -0.017084479 4.8813139e-39 305 254
-0.017084479 0.69599998 -0.017084479 5.0660583e-39 306 254
-0.015818574 0.69400001 -0.017035386 5.0660583e-39 307 254
-0.01460176 0.69400001 -0.017035386 5.2497209e-39 308 254
-0.01336566 0.69300002 -0.01701084 5.3419165e-39 309 254
-0.012115533 0.69099998 -0.016961746 5.0671247e-39 310 254
-0.01090398 0.69099998 -0.016961746 5.1593203e-39 311 254
-0.0096783992 0.69 -0.0169372 5.7103305e-39 312 254
-0.0084440531 0.68800002 -0.016888106 5.8025261e-39 313 254
-0.0072272392 0.68699998 -0.01686356 6.2616994e-39 314 254
-0.0060139326 0.68599999 -0.016839013 6.0776683e-39 315 254
-0.0047971201 0.68400002 -0.016789921 6.7190706e-39 316 254
-0.0035925799 0.68300003 -0.016765373 6.626875e-39 317 254
-0.0023915465 0.68199998 -0.016740825 6.9920674e-39 318 254
-0.0011957732 0.68199998 -0.016740825 6.7151203e-39 319 254
0 0.68000001 -0.016691733 6.7140539e-39 320 254
0.0011905134 0.67900002 -0.016667187 6.6214996e-39 321 254
0.0023775198 0.67799997 -0.016642639 6.437837e-39 322 254
0.0035662798 0.67799997 -0.016642639 6.2534457e-39 323 254
0.0047410131 0.676 -0.016593546 5.700988e-39 324 254
0.0059262668 0.676 -0.016593546 4.7793919e-39 325 254
0.0071010003 0.67500001 -0.016569 3.5862717e-39 326 254
0.0082722269 0.67400002 -0.016544454 7.6428794e-39 327 254
0.0094259195 0.67199999 -0.01649536 9.7673488e-39 328 254
0.01058838 0.671 -0.016470812 1.2071879e-38 329 254
0.011764866 0.671 -0.016470812 1.3628349e-38 330 254
0.012883492 0.66799998 -0.016397171 1.1139426e-38 331 254
0.014054719 0.66799998 -0.016397171 1.2783453e-38 332 254
0.015203152 0.667 -0.016372627 1.2045888e-38 333 254
0.016348081 0.66600001 -0.016348081 1.3512383e-38 334 254
0.017515799 0.66600001 -0.016348081 1.3604579e-38 335 254
0.018627413 0.66399997 -0.016298985 1.3878639e-38 336 254
0.019732011 0.662 -0.016249891 1.3786445e-38 337 254
0.020892721 0.662 -0.016249891 1.3877922e-38 338 254
0.022020113 0.66100001 -0.016225345 1.3785728e-38 339 254
0.023179067 0.66100001 -0.016225345 1.3879358e-38 340 254
0.024264378 0.65899998 -0.016176252 1.369461e-38 341 254
0.025381252 0.65799999 -0.016151706 1.259115e-38 342 254
0.026494619 0.65700001 -0.01612716 1.1945789e-38 343 254
0.027646558 0.65700001 -0.01612716 1.0936323e-38 344 254
0.028710833 0.65499997 -0.016078066 1.0751572e-38 345 254
0.029813679 0.65399998 -0.01605352 8.9998786e-39 346 254
0.03091302 0.653 -0.016028972 1.0751575e-38 347 254
0.032057945 0.653 -0.016028972 1.3819949e-38 348 254
0.033152029 0.65200001 -0.016004426 1.3358971e-38 349 254
0.034295198 0.65200001 -0.016004426 9.9488281e-39 350 254
0.035329666 0.64999998 -0.015955333 4.7862316e-39 351 254
0.036413226 0.64899999 -0.015930785 4.7783157e-39 352 254
0.037493281 0.648 -0.015906241 6.0690517e-39 353 254
0.038569827 0.64700001 -0.015881693 6.070481e-39 354 254
0.039704233 0.64700001 -0.015881693 6.2545121e-39 355 254
0.040775519 0.64600003 -0.015857147 6.8055209e-39 356 254
0.041908171 0.64600003 -0.015857147 7.0821092e-39 357 254
0.042907573 0.64399999 -0.015808053 7.4498029e-39 358 254
0.043968339 0.64300001 -0.015783506 7.633834e-39 359 254
0.045095734 0.64300001 -0.015783506 8.0937262e-39 360 254
0.046151239 0.64200002 -0.01575896 8.1859218e-39 361 254
0.047276881 0.64200002 -0.01575896 8.3692369e-39 362 254
0.048327126 0.64099997 -0.015734414 8.3692369e-39 363 254
0.049451008 0.64099997 -0.015734414 8.276335e-39 364 254
0.050574899 0.64099997 -0.015734414 7.8153582e-39 365 254
0.051698782 0.64099997 -0.015734414 7.0832036e-39 366 254
0.052822668 0.64099997 -0.015734414 1.2061768e-38 367 254
0.05403072 0.64200002 -0.01575896 1.1428996e-38 368 254
0.05524227 0.64300001 -0.015783506 1.1797778e-38 369 254
0.056457333 0.64399999 -0.015808053 1.1521561e-38 370 254
0.057765324 0.64600003 -0.015857147 1.1521561e-38 371 254
0.059080318 0.648 -0.015906241 1.1982535e-38 372 254
0.060402326 0.64999998 -0.015955333 1.2351678e-38 373 254
0.061826039 0.653 -0.016028972 1.2537141e-38 374 254
0.063067392 0.65399998 -0.01605352 1.235275e-38 375 254
0.064312264 0.65499997 -0.016078066 1.2900899e-38 376 254
0.065760516 0.65799999 -0.016151706 1.2440279e-38 377 254
0.067015901 0.65899998 -0.016176252 1.1796709e-38 378 254
0.068171352 0.65899998 -0.016176252 1.2165132e-38 379 254
0.069642402 0.662 -0.016249891 1.198217e-38 380 254
0.071230918 0.66600001 -0.016348081 1.198217e-38 381 254
0.072616048 0.66799998 -0.016397171 1.1706659e-38 382 254
0.074008204 0.67000002 -0.016446266 1.1614463e-38 383 254
0.075295143 0.671 -0.016470812 1.1890696e-38 384 254
0.076585598 0.67199999 -0.01649536 1.225948e-38 385 254
0.077995278 0.67400002 -0.016544454 1.3273627e-38 386 254
0.079177029 0.67400002 -0.016544454 1.2905205e-38 387 254
0.080001086 0.671 -0.016470812 1.170125e-38 388 254
0.081177577 0.671 -0.016470812 1.3729554e-38 389 254
0.083213195 0.67799997 -0.016642639 1.6311745e-38 390 254
0.084526442 0.67900002 -0.016667187 1.5943322e-38 391 254
-0.10476518 0.77600002 -0.0204088 1.6848728e-38 243 255
-0.10340459 0.77600002 -0.0204088 1.903223e-38 244 255
-0.101781 0.77399999 -0.020356199 1.7649295e-38 245 255
-0.10042392 0.77399999 -0.020356199 1.9853353e-38 246 255
-0.099066831 0.77399999 -0.020356199 1.8931755e-38 247 255
-0.09758351 0.773 -0.0203299 1.1961608e-38 248 255
-0.095979221 0.77100003 -0.020277301 1.362077e-38 249 255
-0.094381928 0.76899999 -0.0202247 1.2714305e-38 250 255
-0.092791654 0.76700002 -0.020172099 1.3820652e-38 251 255
-0.091327623 0.76599997 -0.020145798 1.400758e-38 252 255
-0.089984566 0.76599997 -0.020145798 1.4837341e-38 253 255
-0.088410079 0.764 -0.020093199 1.5575982e-38 254 255
-0.087070532 0.764 -0.020093199 1.5483786e-38 255 255
-0.085506558 0.76200002 -0.0200406 1.5390867e-38 256 255
-0.084060051 0.76099998 -0.020014299 1.5390867e-38 257 255
-0.082508355 0.759 -0.0199617 1.5023527e-38 258 255
-0.080963671 0.75700003 -0.019909101 1.5023527e-38 259 255
-0.079320803 0.75400001 -0.019830201 1.511536e-38 260 255
-0.077998787 0.75400001 -0.019830201 1.511536e-38 261 255
-0.076473378 0.75199997 -0.0197776 1.5115357e-38 262 255
-0.074954994 0.75 -0.019724999 1.5023161e-38 263 255
-0.073541813 0.74900001 -0.0196987 1.5022442e-38 264 255
-0.072035693 0.74699998 -0.019646099 1.5390865e-38 265 255
-0.070631281 0.74599999 -0.019619798 1.4745501e-38 266 255
-0.069323286 0.74599999 -0.019619798 1.2348416e-38 267 255
-0.067650609 0.74199998 -0.0195146 1.0045333e-38 268 255
-0.066349633 0.74199998 -0.0195146 1.3364375e-38 269 255
-0.064785667 0.73900002 -0.0194357 1.539087e-38 270 255
-0.063404039 0.73799998 -0.019409399 1.4929893e-38 271 255
-0.061941758 0.736 -0.019356798 1.5113189e-38 272 255
-0.060486492 0.73400003 -0.019304199 1.5020993e-38 273 255
-0.059199546 0.73400003 -0.019304199 1.5204308e-38 274 255
-0.057833698 0.73299998 -0.019277899 1.4743332e-38 275 255
-0.056548502 0.73299998 -0.019277899 1.4095091e-38 276 255
-0.055112526 0.73100001 -0.019225299 1.326533e-38 277 255
-0.053757198 0.73000002 -0.019199001 1.3364375e-38 278 255
-0.052333489 0.72799999 -0.0191464 1.4747669e-38 279 255
-0.051057063 0.72799999 -0.0191464 1.5113206e-38 280 255
-0.049712259 0.727 -0.019120099 1.5205401e-38 281 255
-0.048304334 0.72500002 -0.0190675 1.5299009e-38 282 255
-0.046838548 0.722 -0.0189886 1.4008271e-38 283 255
-0.045446403 0.72000003 -0.018935999 1.3910289e-38 284 255
-0.044122629 0.71899998 -0.018909698 1.3725896e-38 285 255
-0.042742759 0.71700001 -0.018857099 1.3909544e-38 286 255
-0.041427758 0.71600002 -0.0188308 1.3909544e-38 287 255
-0.040172372 0.71600002 -0.0188308 1.3726234e-38 288 255
-0.038808275 0.71399999 -0.018778199 1.3910625e-38 289 255
-0.037556399 0.71399999 -0.018778199 1.3449667e-38 290 255
-0.036253672 0.713 -0.018751899 1.2527352e-38 291 255
-0.034905359 0.71100003 -0.0186993 8.6497656e-39 292 255
-0.033611398 0.70999998 -0.018672999 6.8058712e-39 293 255
-0.032366529 0.70999998 -0.018672999 7.3601268e-39 294 255
-0.031034 0.708 -0.0186204 7.4523224e-39 295 255
-0.02979264 0.708 -0.0186204 7.4516176e-39 296 255
-0.028510952 0.70700002 -0.018594101 7.5438132e-39 297 255
-0.027232772 0.70599997 -0.018567799 7.4516204e-39 298 255
-0.02592128 0.704 -0.018515198 7.266869e-39 299 255
-0.024581732 0.70099998 -0.018436298 6.3481623e-39 300 255
-0.023319334 0.69999999 -0.018409999 6.2556079e-39 301 255
-0.022091998 0.69999999 -0.018409999 5.0639073e-39 302 255
-0.020864666 0.69999999 -0.018409999 5.0639073e-39 303 255
-0.019581227 0.69800001 -0.0183574 4.880958e-39 304 255
-0.018331099 0.69700003 -0.018331099 4.9731536e-39 305 255
-0.017084479 0.69599998 -0.018304799 5.0657024e-39 306 255
-0.015818574 0.69400001 -0.0182522 5.2497335e-39 307 255
-0.01460176 0.69400001 -0.0182522 5.2493705e-39 308 255
-0.01336566 0.69300002 -0.018225901 5.2493705e-39 309 255
-0.012150601 0.69300002 -0.018225901 5.3419193e-39 310 255
-0.01090398 0.69099998 -0.0181733 5.6181475e-39 311 255
-0.0096783992 0.69 -0.018146999 5.7121311e-39 312 255
-0.0084440531 0.68800002 -0.0180944 5.9883579e-39 313 255
-0.0072272392 0.68699998 -0.018068098 6.6308406e-39 314 255
-0.0060139326 0.68599999 -0.018041799 6.6308406e-39 315 255
-0.0048111463 0.68599999 -0.018041799 6.814506e-39 316 255
-0.0035925799 0.68300003 -0.017962901 6.3535293e-39 317 255
-0.0023950534 0.68300003 -0.017962901 6.9023857e-39 318 255
-0.0011957732 0.68199998 -0.017936599 6.5336045e-39 319 255
0 0.68199998 -0.017936599 6.8066041e-39 320 255
0.0011922666 0.68000001 -0.017883999 6.8066041e-39 321 255
0.0023810267 0.67900002 -0.017857701 6.6222184e-39 322 255
0.0035662798 0.67799997 -0.0178314 6.3459917e-39 323 255
0.0047550397 0.67799997 -0.0178314 6.2537961e-39 324 255
0.0059262668 0.676 -0.017778801 6.2537961e-39 325 255
0.0071115191 0.676 -0.017778801 5.5169751e-39 326 255
0.0082844999 0.67500001 -0.0177525 4.5024645e-39 327 255
0.0094539737 0.67400002 -0.0177262 4.1520459e-39 328 255
0.010604159 0.67199999 -0.017673599 8.6696318e-39 329 255
0.011764866 0.671 -0.0176473 1.280367e-38 330 255
0.012941353 0.671 -0.0176473 1.3080258e-38 331 255
0.014054719 0.66799998 -0.017568398 1.3537251e-38 332 255
0.015203152 0.667 -0.0175421 1.2615295e-38 333 255
0.016372627 0.667 -0.0175421 1.3711549e-38 334 255
0.017515799 0.66600001 -0.017515799 1.325021e-38 335 255
0.018627413 0.66399997 -0.0174632 1.3431716e-38 336 255
0.019761819 0.66299999 -0.017436899 1.3708302e-38 337 255
0.020892721 0.662 -0.017410601 1.3709026e-38 338 255
0.022053426 0.662 -0.017410601 1.3709026e-38 339 255
0.023179067 0.66100001 -0.0173843 1.388982e-38 340 255
0.024264378 0.65899998 -0.017331699 1.306006e-38 341 255
0.025419824 0.65899998 -0.017331699 1.0756611e-38 342 255
0.026534945 0.65799999 -0.017305398 8.1751528e-39 343 255
0.027646558 0.65700001 -0.0172791 7.2560804e-39 344 255
0.028710833 0.65499997 -0.017226499 7.4408276e-39 345 255
0.029859263 0.65499997 -0.017226499 9.4626504e-39 346 255
0.030960357 0.65399998 -0.017200198 1.4072432e-38 347 255
0.032057945 0.653 -0.017173899 1.4282372e-38 348 255
0.033152029 0.65200001 -0.017147599 1.2254068e-38 349 255
0.034295198 0.65200001 -0.017147599 7.4584727e-39 350 255
0.035329666 0.64999998 -0.017095 4.9691907e-39 351 255
0.036413226 0.64899999 -0.017068699 6.5264355e-39 352 255
0.037493281 0.648 -0.0170424 6.8030238e-39 353 255
0.038569827 0.64700001 -0.0170161 6.4374614e-39 354 255
0.039704233 0.64700001 -0.0170161 6.6218527e-39 355 255
0.040775519 0.64600003 -0.016989801 6.8977137e-39 356 255
0.041908171 0.64600003 -0.016989801 6.9902681e-39 357 255
0.043040827 0.64600003 -0.016989801 7.4501546e-39 358 255
0.044036716 0.64399999 -0.0169372 7.72638e-39 359 255
0.045095734 0.64300001 -0.016910899 8.1851973e-39 360 255
0.046223126 0.64300001 -0.016910899 8.4621387e-39 361 255
0.047276881 0.64200002 -0.016884599 8.278116e-39 362 255
0.048327126 0.64099997 -0.016858298 8.278116e-39 363 255
0.049451008 0.64099997 -0.016858298 8.1855715e-39 364 255
0.050574899 0.64099997 -0.016858298 7.6323991e-39 365 255
0.051698782 0.64099997 -0.016858298 7.0835595e-39 366 255
0.052822668 0.64099997 -0.016858298 1.2246515e-38 367 255
0.05403072 0.64200002 -0.016884599 1.1704863e-38 368 255
0.05524227 0.64300001 -0.016910899 1.2073286e-38 369 255
0.056457333 0.64399999 -0.0169372 1.161303e-38 370 255
0.057765324 0.64600003 -0.016989801 1.1797781e-38 371 255
0.059080318 0.648 -0.0170424 1.2534625e-38 372 255
0.060402326 0.64999998 -0.017095 1.2534625e-38 373 255
0.061826039 0.653 -0.017173899 1.2350232e-38 374 255
0.063163824 0.65499997 -0.017226499 1.1889255e-38 375 255
0.064508639 0.65700001 -0.0172791 1.2346282e-38 376 255
0.065760516 0.65799999 -0.017305398 1.2438479e-38 377 255
0.067015901 0.65899998 -0.017331699 1.1889258e-38 378 255
0.068378247 0.66100001 -0.0173843 1.2165485e-38 379 255
0.069747597 0.66299999 -0.017436899 1.189069e-38 380 255
0.071337871 0.667 -0.0175421 1.189069e-38 381 255
0.072616048 0.66799998 -0.017568398 1.1889974e-38 382 255
0.074008204 0.67000002 -0.017620999 1.2258755e-38 383 255
0.075407356 0.67199999 -0.017673599 1.2905205e-38 384 255
0.076585598 0.67199999 -0.017673599 1.3365823e-38 385 255
0.078110993 0.67500001 -0.0177525 1.3734237e-38 386 255
0.079294503 0.67500001 -0.0177525 1.2904475e-38 387 255
0.080597222 0.676 -0.017778801 1.1699797e-38 388 255
0.082024433 0.67799997 -0.0178314 1.3820655e-38 389 255
0.083213195 0.67799997 -0.0178314 1.5851474e-38 390 255
0.084526442 0.67900002 -0.017857701 1.5667082e-38 391 255
-0.10476518 0.77600002 -0.021769386 1.8212193e-38 243 256
-0.10340459 0.77600002 -0.021769386 1.9302333e-38 244 256
-0.102044 0.77600002 -0.021769386 1.939453e-38 245 256
-0.10068341 0.77600002 -0.021769386 1.9579292e-38 246 256
-0.099066831 0.77399999 -0.021713279 1.8288554e-38 247 256
-0.09770976 0.77399999 -0.021713279 1.2789574e-38 248 256
-0.09622819 0.773 -0.021685226 1.4172508e-38 249 256
-0.094627403 0.77100003 -0.021629119 1.2619961e-38 250 256
-0.093033619 0.76899999 -0.021573013 1.326533e-38 251 256
-0.091446854 0.76700002 -0.021516906 1.2716122e-38 252 256
-0.089984566 0.76599997 -0.021488851 1.31771e-38 253 256
-0.088641517 0.76599997 -0.021488851 1.3821747e-38 254 256
-0.087070532 0.764 -0.021432746 1.4559313e-38 255 256
-0.085506558 0.76200002 -0.02137664 1.4836978e-38 256 256
-0.084060051 0.76099998 -0.021348584 1.5297956e-38 257 256
-0.082508355 0.759 -0.02129248 1.5115722e-38 258 256
-0.080963671 0.75700003 -0.021236373 1.5300474e-38 259 256
-0.079425998 0.755 -0.021180267 1.5483063e-38 260 256
-0.077998787 0.75400001 -0.021152213 1.5483063e-38 261 256
-0.076473378 0.75199997 -0.021096105 1.5482697e-38 262 256
-0.074954994 0.75 -0.02104 1.5482697e-38 263 256
-0.073639996 0.75 -0.02104 1.5390502e-38 264 256
-0.072228566 0.74900001 -0.021011947 1.5666728e-38 265 256
-0.070725955 0.74699998 -0.020955838 1.5757855e-38 266 256
-0.069323286 0.74599999 -0.020927785 1.3729551e-38 267 256
-0.067832954 0.74400002 -0.02087168 7.1905136e-39 268 256
-0.066349633 0.74199998 -0.020815572 1.0141134e-38 269 256
-0.064960994 0.741 -0.020787518 1.4471805e-38 270 256
