# .PCD v.7 - Point Cloud Data file format
FIELDS x y z rgb imX imY
SIZE 4 4 4 4 4 4
TYPE F F F F F F
COUNT 1 1 1 1 1 1
WIDTH 856
HEIGHT 1
VIEWPOINT 0 0 0 1 0 0 0
POINTS 856
DATA ascii
0.064114138 0.71700001 0.021371379 1.4103042e-38 371 223
0.065644801 0.72000003 0.021460801 1.37357e-38 372 223
-0.050885238 0.69099998 0.019384852 1.4475082e-38 278 224
-0.049458027 0.68800002 0.019300694 1.4567279e-38 279 224
-0.048181597 0.68699998 0.019272638 1.4384689e-38 280 224
-0.046977058 0.68699998 0.019272638 1.4476884e-38 281 224
-0.045506012 0.68300003 0.019160427 1.4018427e-38 282 224
-0.044243611 0.68199998 0.019132372 1.4110623e-38 283 224
-0.043047838 0.68199998 0.019132372 1.4111342e-38 284 224
-0.041667968 0.67900002 0.019048214 1.4111342e-38 285 224
-0.040417835 0.67799997 0.019020159 1.4294654e-38 286 224
-0.039113361 0.676 0.018964052 1.4294654e-38 287 224
-0.037871998 0.67500001 0.018935999 1.4293932e-38 288 224
-0.036634147 0.67400002 0.018907947 1.4201737e-38 289 224
-0.035347197 0.67199999 0.018851839 1.4201018e-38 290 224
-0.034118112 0.671 0.018823786 1.4201018e-38 291 224
-0.032941625 0.671 0.018823786 1.4108822e-38 292 224
-0.0317178 0.67000002 0.018795732 1.392443e-38 293 224
-0.030451892 0.66799998 0.018739626 1.4199219e-38 294 224
-0.029236831 0.667 0.018711573 1.4291414e-38 295 224
-0.028067358 0.667 0.018711573 1.4015906e-38 296 224
-0.026857559 0.66600001 0.018683519 1.4015906e-38 297 224
-0.02568984 0.66600001 0.018683519 1.4015906e-38 298 224
-0.024448479 0.66399997 0.018627413 1.3923711e-38 299 224
-0.023284266 0.66399997 0.018627413 1.392443e-38 300 224
-0.022120051 0.66399997 0.018627413 1.392443e-38 301 224
-0.020955838 0.66399997 0.018627413 1.4015904e-38 302 224
-0.019791625 0.66399997 0.018627413 1.4200293e-38 303 224
-0.018683519 0.66600001 0.018683519 1.4016978e-38 304 224
-0.0174632 0.66399997 0.018627413 1.4016978e-38 305 224
-0.016298985 0.66399997 0.018627413 1.4016625e-38 306 224
-0.015134773 0.66399997 0.018627413 1.392443e-38 307 224
-0.013949519 0.66299999 0.018599359 1.4015909e-38 308 224
-0.012787059 0.66299999 0.018599359 1.3923355e-38 309 224
-0.011607066 0.662 0.018571306 1.3738964e-38 310 224
-0.01044636 0.662 0.018571306 1.3738964e-38 311 224
-0.009285653 0.662 0.018571306 1.3464175e-38 312 224
-0.0081249457 0.662 0.018571306 1.3371979e-38 313 224
-0.0069642398 0.662 0.018571306 1.3554924e-38 314 224
-0.0058035329 0.662 0.018571306 1.3647121e-38 315 224
-0.0046428265 0.662 0.018571306 1.3737871e-38 316 224
-0.0034821199 0.662 0.018571306 1.3461285e-38 317 224
-0.0023214133 0.662 0.018571306 1.3369092e-38 318 224
-0.00116246 0.66299999 0.018599359 1.3276897e-38 319 224
0 0.66299999 0.018599359 1.3001031e-38 320 224
0.00116246 0.66299999 0.018599359 1.2908836e-38 321 224
0.0023284266 0.66399997 0.018627413 1.2908117e-38 322 224
0.0034926396 0.66399997 0.018627413 1.2815562e-38 323 224
0.0046568532 0.66399997 0.018627413 1.2906316e-38 324 224
0.0058210664 0.66399997 0.018627413 1.2721924e-38 325 224
0.0069852793 0.66399997 0.018627413 1.2812672e-38 326 224
0.0081494926 0.66399997 0.018627413 1.2536086e-38 327 224
0.0093417596 0.66600001 0.018683519 1.2444245e-38 328 224
0.01050948 0.66600001 0.018683519 1.2444245e-38 329 224
0.011677199 0.66600001 0.018683519 1.2351693e-38 330 224
0.01284492 0.66600001 0.018683519 1.2351693e-38 331 224
0.014033679 0.667 0.018711573 1.2259498e-38 332 224
0.015203152 0.667 0.018711573 1.2259498e-38 333 224
0.016372627 0.667 0.018711573 1.2167299e-38 334 224
0.017568398 0.66799998 0.018739626 1.2167299e-38 335 224
0.018795732 0.67000002 0.018795732 1.2259132e-38 336 224
0.020000271 0.671 0.018823786 1.2259132e-38 337 224
0.021176759 0.671 0.018823786 1.2167655e-38 338 224
0.022353247 0.671 0.018823786 1.2167655e-38 339 224
0.023669999 0.67500001 0.018935999 1.2259851e-38 340 224
0.024963958 0.67799997 0.019020159 1.2259851e-38 341 224
0.026191294 0.67900002 0.019048214 1.2351325e-38 342 224
0.027381808 0.67900002 0.019048214 1.2535715e-38 343 224
0.02869856 0.68199998 0.019132372 1.2535715e-38 344 224
0.029982001 0.68400002 0.01918848 1.2535715e-38 345 224
0.031272452 0.68599999 0.019244585 1.23524e-38 346 224
0.032522578 0.68699998 0.019272638 1.2260204e-38 347 224
0.033776212 0.68800002 0.019300694 1.2259129e-38 348 224
0.034931656 0.68699998 0.019272638 1.2166934e-38 349 224
0.036136195 0.68699998 0.019272638 1.2074382e-38 350 224
0.037340738 0.68699998 0.019272638 1.2074382e-38 351 224
0.038545277 0.68699998 0.019272638 1.2075101e-38 352 224
0.041427758 0.71600002 0.020086186 1.2075101e-38 353 224
0.042683143 0.71600002 0.020086186 1.2166581e-38 354 224
0.043815799 0.71399999 0.020030079 1.2258776e-38 355 224
0.045067675 0.71399999 0.020030079 1.2076186e-38 356 224
0.046319555 0.71399999 0.020030079 1.2076186e-38 357 224
0.047571439 0.71399999 0.020030079 1.2259145e-38 358 224
0.048823316 0.71399999 0.020030079 1.235134e-38 359 224
0.050215468 0.71600002 0.020086186 1.2351693e-38 360 224
0.051470853 0.71600002 0.020086186 1.2443889e-38 361 224
0.052726239 0.71600002 0.020086186 1.2352765e-38 362 224
0.054057021 0.71700001 0.020114239 1.2444961e-38 363 224
0.055314157 0.71700001 0.020114239 1.2446044e-38 364 224
0.056571297 0.71700001 0.020114239 1.2722271e-38 365 224
0.057828441 0.71700001 0.020114239 1.2907018e-38 366 224
0.059085581 0.71700001 0.020114239 1.3275442e-38 367 224
0.060342718 0.71700001 0.020114239 1.3826095e-38 368 224
0.061599858 0.71700001 0.020114239 1.3826095e-38 369 224
0.062856995 0.71700001 0.020114239 1.3734981e-38 370 224
0.064382397 0.72000003 0.020198401 1.3734981e-38 371 224
-0.050885238 0.69099998 0.0181733 1.4566915e-38 278 225
-0.049673684 0.69099998 0.0181733 1.4935339e-38 279 225
-0.048251733 0.68800002 0.0180944 1.4201018e-38 280 225
-0.046977058 0.68699998 0.018068098 1.4201018e-38 281 225
-0.045772515 0.68699998 0.018068098 1.4018071e-38 282 225
-0.044308487 0.68300003 0.017962901 1.4110626e-38 283 225
-0.043047838 0.68199998 0.017936599 1.4110989e-38 284 225
-0.041729335 0.68000001 0.017883999 1.4110989e-38 285 225
-0.040417835 0.67799997 0.0178314 1.4386497e-38 286 225
-0.039113361 0.676 0.017778801 1.4386497e-38 287 225
-0.037871998 0.67500001 0.0177525 1.4295734e-38 288 225
-0.036688499 0.67500001 0.0177525 1.4203537e-38 289 225
-0.035452399 0.67400002 0.0177262 1.4111339e-38 290 225
-0.034168959 0.67199999 0.017673599 1.4019143e-38 291 225
-0.032941625 0.671 0.0176473 1.4018424e-38 292 225
-0.0317178 0.67000002 0.017620999 1.3926229e-38 293 225
-0.030543067 0.67000002 0.017620999 1.4109897e-38 294 225
-0.029280664 0.66799998 0.017568398 1.3925507e-38 295 225
-0.028067358 0.667 0.0175421 1.383331e-38 296 225
-0.026857559 0.66600001 0.017515799 1.3741115e-38 297 225
-0.02568984 0.66600001 0.017515799 1.3832234e-38 298 225
-0.02452212 0.66600001 0.017515799 1.3648203e-38 299 225
-0.023354398 0.66600001 0.017515799 1.3739319e-38 300 225
-0.02218668 0.66600001 0.017515799 1.3646765e-38 301 225
-0.020955838 0.66399997 0.0174632 1.3554205e-38 302 225
-0.019791625 0.66399997 0.0174632 1.3461651e-38 303 225
-0.018683519 0.66600001 0.017515799 1.3276897e-38 304 225
-0.017515799 0.66600001 0.017515799 1.3276897e-38 305 225
-0.016298985 0.66399997 0.0174632 1.3368736e-38 306 225
-0.015134773 0.66399997 0.0174632 1.3276541e-38 307 225
-0.013949519 0.66299999 0.017436899 1.3552407e-38 308 225
-0.012787059 0.66299999 0.017436899 1.3552407e-38 309 225
-0.0116246 0.66299999 0.017436899 1.3276541e-38 310 225
-0.01044636 0.662 0.017410601 1.3276541e-38 311 225
-0.009285653 0.662 0.017410601 1.3276174e-38 312 225
-0.0081372196 0.66299999 0.017436899 1.3183978e-38 313 225
-0.0069747595 0.66299999 0.017436899 1.3275092e-38 314 225
-0.0058122999 0.66299999 0.017436899 1.3091061e-38 315 225
-0.0046428265 0.662 0.017410601 1.2998862e-38 316 225
-0.0034821199 0.662 0.017410601 1.2906667e-38 317 225
-0.0023249199 0.66299999 0.017436899 1.2814116e-38 318 225
-0.0011642133 0.66399997 0.0174632 1.2906313e-38 319 225
0 0.66399997 0.0174632 1.3089631e-38 320 225
0.0011642133 0.66399997 0.0174632 1.2813044e-38 321 225
0.0023284266 0.66399997 0.0174632 1.2720849e-38 322 225
0.0034926396 0.66399997 0.0174632 1.2628653e-38 323 225
0.0046568532 0.66399997 0.0174632 1.2628287e-38 324 225
0.0058210664 0.66399997 0.0174632 1.2536092e-38 325 225
0.0069852793 0.66399997 0.0174632 1.2443889e-38 326 225
0.0081494926 0.66399997 0.0174632 1.2443889e-38 327 225
0.0093417596 0.66600001 0.017515799 1.2352412e-38 328 225
0.01050948 0.66600001 0.017515799 1.2352412e-38 329 225
0.011677199 0.66600001 0.017515799 1.2352412e-38 330 225
0.012864206 0.667 0.0175421 1.2444609e-38 331 225
0.014033679 0.667 0.0175421 1.2169097e-38 332 225
0.015225946 0.66799998 0.017568398 1.2169097e-38 333 225
0.016397171 0.66799998 0.017568398 1.2077258e-38 334 225
0.017620999 0.67000002 0.017620999 1.2077258e-38 335 225
0.018823786 0.671 0.0176473 1.2168734e-38 336 225
0.020030079 0.67199999 0.017673599 1.2076539e-38 337 225
0.021208318 0.67199999 0.017673599 1.2168734e-38 338 225
0.022453187 0.67400002 0.0177262 1.2076539e-38 339 225
0.023705067 0.676 0.017778801 1.2168734e-38 340 225
0.024963958 0.67799997 0.0178314 1.2168734e-38 341 225
0.026229866 0.68000001 0.017883999 1.2352047e-38 342 225
0.027422134 0.68000001 0.017883999 1.2444242e-38 343 225
0.02869856 0.68199998 0.017936599 1.2535715e-38 344 225
0.030069664 0.68599999 0.018041799 1.2535715e-38 345 225
0.031318039 0.68699998 0.018068098 1.23524e-38 346 225
0.032522578 0.68699998 0.018068098 1.2260204e-38 347 225
0.033776212 0.68800002 0.0180944 1.216765e-38 348 225
0.03498251 0.68800002 0.0180944 1.1891422e-38 349 225
0.0361888 0.68800002 0.0180944 1.1981822e-38 350 225
0.037395094 0.68800002 0.0180944 1.1889627e-38 351 225
0.040172372 0.71600002 0.0188308 1.1613763e-38 352 225
0.041427758 0.71600002 0.0188308 1.1613763e-38 353 225
0.042563915 0.71399999 0.018778199 1.1889992e-38 354 225
0.043815799 0.71399999 0.018778199 1.1705961e-38 355 225
0.045067675 0.71399999 0.018778199 1.1614131e-38 356 225
0.046319555 0.71399999 0.018778199 1.1614131e-38 357 225
0.047571439 0.71399999 0.018778199 1.1705252e-38 358 225
0.048823316 0.71399999 0.018778199 1.1981838e-38 359 225
0.050215468 0.71600002 0.0188308 1.1981116e-38 360 225
0.051470853 0.71600002 0.0188308 1.2073312e-38 361 225
0.052799881 0.71700001 0.018857099 1.2074032e-38 362 225
0.054057021 0.71700001 0.018857099 1.1981835e-38 363 225
0.055314157 0.71700001 0.018857099 1.1524454e-38 364 225
0.056571297 0.71700001 0.018857099 1.1801041e-38 365 225
0.057828441 0.71700001 0.018857099 1.2536805e-38 366 225
0.059250388 0.71899998 0.018909698 1.2721555e-38 367 225
0.060511041 0.71899998 0.018909698 1.318181e-38 368 225
0.061771683 0.71899998 0.018909698 1.3274007e-38 369 225
0.063032329 0.71899998 0.018909698 1.3642069e-38 370 225
0.064382397 0.72000003 0.018935999 1.38261e-38 371 225
0.065827139 0.722 0.0189886 1.3550234e-38 372 225
-0.049673684 0.69099998 0.016961746 1.4567279e-38 279 226
-0.048391998 0.69 0.0169372 1.4292135e-38 280 226
-0.047045439 0.68800002 0.016888106 1.4384689e-38 281 226
-0.045839146 0.68800002 0.016888106 1.4018074e-38 282 226
-0.04437336 0.68400002 0.016789921 1.411027e-38 283 226
-0.043047838 0.68199998 0.016740825 1.4110991e-38 284 226
-0.041729335 0.68000001 0.016691733 1.4203187e-38 285 226
-0.040477451 0.67900002 0.016667187 1.4110989e-38 286 226
-0.039229076 0.67799997 0.016642639 1.4295381e-38 287 226
-0.037928104 0.676 0.016593546 1.4479047e-38 288 226
-0.036688499 0.67500001 0.016569 1.4479047e-38 289 226
-0.035505001 0.67500001 0.016569 1.4296088e-38 290 226
-0.034270655 0.67400002 0.016544454 1.4296088e-38 291 226
-0.03299072 0.67199999 0.01649536 1.4387556e-38 292 226
-0.031765141 0.671 0.016470812 1.429536e-38 293 226
-0.030543067 0.67000002 0.016446266 1.4111326e-38 294 226
-0.029368332 0.67000002 0.016446266 1.4019131e-38 295 226
-0.028067358 0.667 0.016372627 1.4202087e-38 296 226
-0.026897885 0.667 0.016372627 1.4202087e-38 297 226
-0.025728412 0.667 0.016372627 1.3925863e-38 298 226
-0.024558939 0.667 0.016372627 1.3741112e-38 299 226
-0.023354398 0.66600001 0.016348081 1.3924064e-38 300 226
-0.02218668 0.66600001 0.016348081 1.3554921e-38 301 226
-0.02101896 0.66600001 0.016348081 1.318614e-38 302 226
-0.019851239 0.66600001 0.016348081 1.3093944e-38 303 226
-0.018683519 0.66600001 0.016348081 1.3001384e-38 304 226
-0.017515799 0.66600001 0.016348081 1.3093582e-38 305 226
-0.016348081 0.66600001 0.016348081 1.3001382e-38 306 226
-0.01518036 0.66600001 0.016348081 1.281699e-38 307 226
-0.013970559 0.66399997 0.016298985 1.2816272e-38 308 226
-0.012806346 0.66399997 0.016298985 1.2816272e-38 309 226
-0.0116246 0.66299999 0.016274439 1.2816272e-38 310 226
-0.01046214 0.66299999 0.016274439 1.2816272e-38 311 226
-0.0092996797 0.66299999 0.016274439 1.2722274e-38 312 226
-0.0081494926 0.66399997 0.016298985 1.2722274e-38 313 226
-0.0069852793 0.66399997 0.016298985 1.2813748e-38 314 226
-0.0058122999 0.66299999 0.016274439 1.2721552e-38 315 226
-0.0046498398 0.66299999 0.016274439 1.2353846e-38 316 226
-0.0034873798 0.66299999 0.016274439 1.2353846e-38 317 226
-0.0023284266 0.66399997 0.016298985 1.2721555e-38 318 226
-0.0011642133 0.66399997 0.016298985 1.2813751e-38 319 226
0 0.66399997 0.016298985 1.2995991e-38 320 226
0.0011642133 0.66399997 0.016298985 1.28116e-38 321 226
0.0023284266 0.66399997 0.016298985 1.2812316e-38 322 226
0.0034926396 0.66399997 0.016298985 1.290487e-38 323 226
0.0046708798 0.66600001 0.016348081 1.2353849e-38 324 226
0.0058385995 0.66600001 0.016348081 1.2261653e-38 325 226
0.0070063197 0.66600001 0.016348081 1.2261649e-38 326 226
0.0081740404 0.66600001 0.016348081 1.2261649e-38 327 226
0.0093417596 0.66600001 0.016348081 1.2629354e-38 328 226
0.010525259 0.667 0.016372627 1.2629354e-38 329 226
0.011694733 0.667 0.016372627 1.262971e-38 330 226
0.012883492 0.66799998 0.016397171 1.262971e-38 331 226
0.014054719 0.66799998 0.016397171 1.2354562e-38 332 226
0.015225946 0.66799998 0.016397171 1.2262366e-38 333 226
0.016446266 0.67000002 0.016446266 1.2354199e-38 334 226
0.0176473 0.671 0.016470812 1.2262002e-38 335 226
0.018823786 0.671 0.016470812 1.2352763e-38 336 226
0.020030079 0.67199999 0.01649536 1.2168732e-38 337 226
0.021208318 0.67199999 0.01649536 1.2168734e-38 338 226
0.022486499 0.67500001 0.016569 1.2168734e-38 339 226
0.023705067 0.676 0.016593546 1.2352047e-38 340 226
0.024963958 0.67799997 0.016642639 1.2352047e-38 341 226
0.026191294 0.67900002 0.016667187 1.2352047e-38 342 226
0.027422134 0.68000001 0.016691733 1.2352047e-38 343 226
0.028740639 0.68300003 0.016765373 1.2535715e-38 344 226
0.030069664 0.68599999 0.016839013 1.2535715e-38 345 226
0.031318039 0.68699998 0.01686356 1.2351681e-38 346 226
0.032522578 0.68699998 0.01686356 1.2351681e-38 347 226
0.033776212 0.68800002 0.016888106 1.2166931e-38 348 226
0.03498251 0.68800002 0.016888106 1.1982538e-38 349 226
0.0361888 0.68800002 0.016888106 1.1889624e-38 350 226
0.037395094 0.68800002 0.016888106 1.1705232e-38 351 226
0.040060159 0.71399999 0.017526319 1.1429734e-38 352 226
0.041312039 0.71399999 0.017526319 1.1429734e-38 353 226
0.042563915 0.71399999 0.017526319 1.1338618e-38 354 226
0.043815799 0.71399999 0.017526319 1.1523009e-38 355 226
0.045067675 0.71399999 0.017526319 1.1430813e-38 356 226
0.046319555 0.71399999 0.017526319 1.1523009e-38 357 226
0.047571439 0.71399999 0.017526319 1.1707399e-38 358 226
0.048823316 0.71399999 0.017526319 1.1891792e-38 359 226
0.050215468 0.71600002 0.017575413 1.2075101e-38 360 226
0.051470853 0.71600002 0.017575413 1.189107e-38 361 226
0.052726239 0.71600002 0.017575413 1.179852e-38 362 226
0.053981625 0.71600002 0.017575413 1.1706324e-38 363 226
0.055237014 0.71600002 0.017575413 1.1889642e-38 364 226
0.056492399 0.71600002 0.017575413 1.216623e-38 365 226
0.057828441 0.71700001 0.017599959 1.1983281e-38 366 226
0.059250388 0.71899998 0.017649053 1.2352062e-38 367 226
0.060511041 0.71899998 0.017649053 1.2078353e-38 368 226
0.061771683 0.71899998 0.017649053 1.2446776e-38 369 226
0.063032329 0.71899998 0.017649053 1.2906313e-38 370 226
0.064382397 0.72000003 0.017673599 1.2998509e-38 371 226
0.065827139 0.722 0.017722692 1.3366568e-38 372 226
0.067093052 0.722 0.017722692 1.3366568e-38 373 226
-0.049889345 0.69400001 0.015818574 1.4659112e-38 279 227
-0.048602402 0.69300002 0.015795778 1.4383614e-38 280 227
-0.047182199 0.69 0.015727401 1.4383614e-38 281 227
-0.045972396 0.69 0.015727401 1.4109194e-38 282 227
-0.04437336 0.68400002 0.01559064 1.4293585e-38 283 227
-0.043110959 0.68300003 0.015567848 1.4110991e-38 284 227
-0.041729335 0.68000001 0.015499466 1.4110991e-38 285 227
-0.040477451 0.67900002 0.015476674 1.4386497e-38 286 227
-0.039229076 0.67799997 0.015453878 1.4479052e-38 287 227
-0.037928104 0.676 0.015408293 1.447905e-38 288 227
-0.036742851 0.676 0.015408293 1.447905e-38 289 227
-0.035557602 0.676 0.015408293 1.4295737e-38 290 227
-0.034321502 0.67500001 0.0153855 1.420354e-38 291 227
-0.033088908 0.67400002 0.015362706 1.4203537e-38 292 227
-0.031812478 0.67199999 0.01531712 1.4203537e-38 293 227
-0.030588651 0.671 0.015294326 1.392803e-38 294 227
-0.029368332 0.67000002 0.015271533 1.392803e-38 295 227
-0.028193599 0.67000002 0.015271533 1.392803e-38 296 227
-0.026938211 0.66799998 0.015225946 1.374328e-38 297 227
-0.025766984 0.66799998 0.015225946 1.3926951e-38 298 227
-0.024558939 0.667 0.015203152 1.3742561e-38 299 227
-0.023389466 0.667 0.015203152 1.420174e-38 300 227
-0.022219993 0.667 0.015203152 1.4109544e-38 301 227
-0.02101896 0.66600001 0.01518036 1.4109541e-38 302 227
-0.019851239 0.66600001 0.01518036 1.4109541e-38 303 227
-0.018711573 0.667 0.015203152 1.429177e-38 304 227
-0.0175421 0.667 0.015203152 1.4199575e-38 305 227
-0.016348081 0.66600001 0.01518036 1.3924064e-38 306 227
-0.01518036 0.66600001 0.01518036 1.3831509e-38 307 227
-0.014012639 0.66600001 0.01518036 1.4014459e-38 308 227
-0.01284492 0.66600001 0.01518036 1.3830066e-38 309 227
-0.011642133 0.66399997 0.015134773 1.3646751e-38 310 227
-0.010477919 0.66399997 0.015134773 1.346236e-38 311 227
-0.0093137063 0.66399997 0.015134773 1.3461638e-38 312 227
-0.0081494926 0.66399997 0.015134773 1.3369443e-38 313 227
-0.0069852793 0.66399997 0.015134773 1.3552755e-38 314 227
-0.0058210664 0.66399997 0.015134773 1.3460558e-38 315 227
-0.0046568532 0.66399997 0.015134773 1.3276524e-38 316 227
-0.0034926396 0.66399997 0.015134773 1.3184328e-38 317 227
-0.0023284266 0.66399997 0.015134773 1.2908815e-38 318 227
-0.00116772 0.66600001 0.01518036 1.2908815e-38 319 227
0 0.66600001 0.01518036 1.2908815e-38 320 227
0.0011642133 0.66399997 0.015134773 1.2816619e-38 321 227
0.0023284266 0.66399997 0.015134773 1.2725142e-38 322 227
0.0035031599 0.66600001 0.01518036 1.2541111e-38 323 227
0.0046708798 0.66600001 0.01518036 1.272407e-38 324 227
0.0058385995 0.66600001 0.01518036 1.272407e-38 325 227
0.0070063197 0.66600001 0.01518036 1.2724076e-38 326 227
0.0081740404 0.66600001 0.01518036 1.2816272e-38 327 227
0.0093557863 0.667 0.015203152 1.2539325e-38 328 227
0.010525259 0.667 0.015203152 1.2539325e-38 329 227
0.011712266 0.66799998 0.015225946 1.2538962e-38 330 227
0.012883492 0.66799998 0.015225946 1.2446407e-38 331 227
0.014096799 0.67000002 0.015271533 1.2263095e-38 332 227
0.015271533 0.67000002 0.015271533 1.2170899e-38 333 227
0.016470812 0.671 0.015294326 1.2262013e-38 334 227
0.017673599 0.67199999 0.01531712 1.2169818e-38 335 227
0.018851839 0.67199999 0.01531712 1.2261653e-38 336 227
0.020089693 0.67400002 0.015362706 1.2169097e-38 337 227
0.021303 0.67500001 0.0153855 1.2168378e-38 338 227
0.022519812 0.676 0.015408293 1.2168378e-38 339 227
0.023775198 0.67799997 0.015453878 1.2168734e-38 340 227
0.025000781 0.67900002 0.015476674 1.2168734e-38 341 227
0.026191294 0.67900002 0.015476674 1.2352047e-38 342 227
0.027502786 0.68199998 0.015545053 1.2352047e-38 343 227
0.028740639 0.68300003 0.015567848 1.2535359e-38 344 227
0.030069664 0.68599999 0.015636226 1.2535359e-38 345 227
0.031318039 0.68699998 0.015659019 1.2259848e-38 346 227
0.032569919 0.68800002 0.015681813 1.2167653e-38 347 227
0.033776212 0.68800002 0.015681813 1.1891424e-38 348 227
0.035084199 0.69 0.015727401 1.1799229e-38 349 227
0.036293998 0.69 0.015727401 1.161376e-38 350 227
0.037503798 0.69 0.015727401 1.1337172e-38 351 227
0.040060159 0.71399999 0.016274439 1.1244257e-38 352 227
0.041312039 0.71399999 0.016274439 1.1336453e-38 353 227
0.042563915 0.71399999 0.016274439 1.1248217e-38 354 227
0.043815799 0.71399999 0.016274439 1.1986141e-38 355 227
0.045067675 0.71399999 0.016274439 1.2630073e-38 356 227
0.046254687 0.713 0.016251646 1.3091411e-38 357 227
0.047504812 0.713 0.016251646 1.3550234e-38 358 227
0.048823316 0.71399999 0.016274439 1.3734984e-38 359 227
0.050075196 0.71399999 0.016274439 1.3459836e-38 360 227
0.05132708 0.71399999 0.016274439 1.336764e-38 361 227
0.052578956 0.71399999 0.016274439 1.3549871e-38 362 227
0.053830836 0.71399999 0.016274439 1.3180728e-38 363 227
0.05508272 0.71399999 0.016274439 1.2720106e-38 364 227
0.056492399 0.71600002 0.016320027 1.2351325e-38 365 227
0.057747785 0.71600002 0.016320027 1.1798876e-38 366 227
0.059250388 0.71899998 0.016388407 1.2259495e-38 367 227
0.060511041 0.71899998 0.016388407 1.2444609e-38 368 227
0.061771683 0.71899998 0.016388407 1.2629359e-38 369 227
0.06312 0.72000003 0.0164112 1.2814469e-38 370 227
0.064382397 0.72000003 0.0164112 1.2906667e-38 371 227
0.065827139 0.722 0.016456785 1.3274007e-38 372 227
0.067093052 0.722 0.016456785 1.3458038e-38 373 227
-0.049889345 0.69400001 0.01460176 1.4475082e-38 279 228
-0.048602402 0.69300002 0.014580719 1.4292137e-38 280 228
-0.047250576 0.69099998 0.014538639 1.4292137e-38 281 228
-0.045972396 0.69 0.014517599 1.4200668e-38 282 228
-0.044632856 0.68800002 0.014475521 1.4476894e-38 283 228
-0.043174081 0.68400002 0.01439136 1.4294304e-38 284 228
-0.041852064 0.68199998 0.01434928 1.4294304e-38 285 228
-0.040537067 0.68000001 0.014307199 1.4294304e-38 286 228
-0.039286941 0.67900002 0.01428616 1.4386499e-38 287 228
-0.038040318 0.67799997 0.014265119 1.4386497e-38 288 228
-0.036851559 0.67799997 0.014265119 1.4479052e-38 289 228
-0.035557602 0.676 0.014223038 1.4295737e-38 290 228
-0.034321502 0.67500001 0.014202001 1.4295737e-38 291 228
-0.033137999 0.67500001 0.014202001 1.420354e-38 292 228
-0.03190716 0.67400002 0.01418096 1.420354e-38 293 228
-0.030634239 0.67199999 0.01413888 1.4203537e-38 294 228
-0.029412165 0.671 0.01411784 1.4203537e-38 295 228
-0.028193599 0.67000002 0.014096799 1.438685e-38 296 228
-0.027018867 0.67000002 0.014096799 1.4294654e-38 297 228
-0.025766984 0.66799998 0.014054719 1.4110623e-38 298 228
-0.02459576 0.66799998 0.014054719 1.4110623e-38 299 228
-0.023424532 0.66799998 0.014054719 1.401879e-38 300 228
-0.022219993 0.667 0.014033679 1.401879e-38 301 228
-0.021050518 0.667 0.014033679 1.4018071e-38 302 228
-0.019881045 0.667 0.014033679 1.4110626e-38 303 228
-0.018711573 0.667 0.014033679 1.4201737e-38 304 228
-0.0175421 0.667 0.014033679 1.392551e-38 305 228
-0.016372627 0.667 0.014033679 1.3925507e-38 306 228
-0.01518036 0.66600001 0.014012639 1.3741115e-38 307 228
-0.014012639 0.66600001 0.014012639 1.3832228e-38 308 228
-0.01284492 0.66600001 0.014012639 1.3832228e-38 309 228
-0.011677199 0.66600001 0.014012639 1.3831863e-38 310 228
-0.01050948 0.66600001 0.014012639 1.3739667e-38 311 228
-0.0093417596 0.66600001 0.014012639 1.3739303e-38 312 228
-0.0081740404 0.66600001 0.014012639 1.3739303e-38 313 228
-0.0070063197 0.66600001 0.014012639 1.3646751e-38 314 228
-0.0058385995 0.66600001 0.014012639 1.346236e-38 315 228
-0.0046708798 0.66600001 0.014012639 1.3462354e-38 316 228
-0.0035031599 0.66600001 0.014012639 1.3186127e-38 317 228
-0.0023354399 0.66600001 0.014012639 1.336979e-38 318 228
-0.00116772 0.66600001 0.014012639 1.336979e-38 319 228
0 0.66600001 0.014012639 1.3277949e-38 320 228
0.00116772 0.66600001 0.014012639 1.3185753e-38 321 228
0.0023354399 0.66600001 0.014012639 1.3185397e-38 322 228
0.0035031599 0.66600001 0.014012639 1.3093202e-38 323 228
0.0046778931 0.667 0.014033679 1.2816269e-38 324 228
0.0058473665 0.667 0.014033679 1.2816269e-38 325 228
0.0070168395 0.667 0.014033679 1.2816269e-38 326 228
0.0081863133 0.667 0.014033679 1.2816269e-38 327 228
0.0093698129 0.66799998 0.014054719 1.3091411e-38 328 228
0.01054104 0.66799998 0.014054719 1.2999215e-38 329 228
0.011747333 0.67000002 0.014096799 1.2998138e-38 330 228
0.012922067 0.67000002 0.014096799 1.2813748e-38 331 228
0.01411784 0.671 0.01411784 1.2630075e-38 332 228
0.015294326 0.671 0.01411784 1.2446044e-38 333 228
0.01649536 0.67199999 0.01413888 1.2353846e-38 334 228
0.017673599 0.67199999 0.01413888 1.2261649e-38 335 228
0.018907947 0.67400002 0.01418096 1.2352765e-38 336 228
0.020119499 0.67500001 0.014202001 1.2352765e-38 337 228
0.021334561 0.676 0.014223038 1.2352765e-38 338 228
0.022586439 0.67799997 0.014265119 1.2168734e-38 339 228
0.023775198 0.67799997 0.014265119 1.2168734e-38 340 228
0.025000781 0.67900002 0.01428616 1.2168734e-38 341 228
0.026229866 0.68000001 0.014307199 1.2352047e-38 342 228
0.027502786 0.68199998 0.01434928 1.2352047e-38 343 228
0.028740639 0.68300003 0.014370319 1.2535359e-38 344 228
0.029982001 0.68400002 0.01439136 1.2535359e-38 345 228
0.031318039 0.68699998 0.014454478 1.2351325e-38 346 228
0.032569919 0.68800002 0.014475521 1.2351325e-38 347 228
0.033776212 0.68800002 0.014475521 1.2166934e-38 348 228
0.035084199 0.69 0.014517599 1.1982541e-38 349 228
0.036346599 0.69099998 0.014538639 1.1796709e-38 350 228
0.03755815 0.69099998 0.014538639 1.1611958e-38 351 228
0.040060159 0.71399999 0.015022559 1.1704877e-38 352 228
0.041312039 0.71399999 0.015022559 1.2258049e-38 353 228
0.042563915 0.71399999 0.015022559 1.2168378e-38 354 228
0.043815799 0.71399999 0.015022559 1.2998138e-38 355 228
0.045067675 0.71399999 0.015022559 1.3274723e-38 356 228
0.046254687 0.713 0.015001519 1.3643504e-38 357 228
0.047371563 0.71100003 0.014959441 1.3643504e-38 358 228
0.048618179 0.71100003 0.014959441 1.3827897e-38 359 228
0.050075196 0.71399999 0.015022559 1.3552388e-38 360 228
0.05132708 0.71399999 0.015022559 1.3552388e-38 361 228
0.052284397 0.70999998 0.014938398 1.3643857e-38 362 228
0.053529263 0.70999998 0.014938398 1.3367272e-38 363 228
0.05508272 0.71399999 0.015022559 1.3365826e-38 364 228
0.0563346 0.71399999 0.015022559 1.2812653e-38 365 228
0.057747785 0.71600002 0.01506464 1.2166581e-38 366 228
0.059250388 0.71899998 0.01512776 1.2166581e-38 367 228
0.060511041 0.71899998 0.01512776 1.1984e-38 368 228
0.061857603 0.72000003 0.0151488 1.2260947e-38 369 228
0.06312 0.72000003 0.0151488 1.2262742e-38 370 228
0.064561233 0.722 0.015190879 1.2447132e-38 371 228
0.065918319 0.72299999 0.015211919 1.2814472e-38 372 228
0.067185976 0.72299999 0.015211919 1.2906669e-38 373 228
0.068643004 0.72500002 0.015254001 1.3274373e-38 374 228
-0.049889345 0.69400001 0.013384946 1.447508e-38 279 229
-0.048602402 0.69300002 0.01336566 1.4291414e-38 280 229
-0.047250576 0.69099998 0.013327086 1.438397e-38 281 229
-0.046039023 0.69099998 0.013327086 1.4201023e-38 282 229
-0.044632856 0.68800002 0.013269227 1.4293219e-38 283 229
-0.043174081 0.68400002 0.01319208 1.411027e-38 284 229
-0.041852064 0.68199998 0.013153506 1.4294301e-38 285 229
-0.040537067 0.68000001 0.013114933 1.4478332e-38 286 229
-0.039286941 0.67900002 0.013095647 1.4478332e-38 287 229
-0.038040318 0.67799997 0.013076359 1.4386497e-38 288 229
-0.036851559 0.67799997 0.013076359 1.4479052e-38 289 229
-0.035557602 0.676 0.013037786 1.4386497e-38 290 229
-0.034321502 0.67500001 0.0130185 1.4386497e-38 291 229
-0.033137999 0.67500001 0.0130185 1.4295381e-38 292 229
-0.03190716 0.67400002 0.012999214 1.4295381e-38 293 229
-0.030634239 0.67199999 0.012960639 1.4111705e-38 294 229
-0.029412165 0.671 0.012941353 1.4111705e-38 295 229
-0.028235679 0.671 0.012941353 1.4203184e-38 296 229
-0.027018867 0.67000002 0.012922067 1.4110989e-38 297 229
-0.025844134 0.67000002 0.012922067 1.4203184e-38 298 229
-0.024669399 0.67000002 0.012922067 1.4110989e-38 299 229
-0.023494666 0.67000002 0.012922067 1.4110986e-38 300 229
-0.022253305 0.66799998 0.012883492 1.420354e-38 301 229
-0.021082079 0.66799998 0.012883492 1.401879e-38 302 229
-0.019910853 0.66799998 0.012883492 1.401879e-38 303 229
-0.018739626 0.66799998 0.012883492 1.3926951e-38 304 229
-0.017568398 0.66799998 0.012883492 1.3926951e-38 305 229
-0.016372627 0.667 0.012864206 1.3742917e-38 306 229
-0.015203152 0.667 0.012864206 1.3650721e-38 307 229
-0.014033679 0.667 0.012864206 1.3741833e-38 308 229
-0.012864206 0.667 0.012864206 1.3741833e-38 309 229
-0.011677199 0.66600001 0.01284492 1.3924427e-38 310 229
-0.01050948 0.66600001 0.01284492 1.3924427e-38 311 229
-0.0093417596 0.66600001 0.01284492 1.3924064e-38 312 229
-0.0081740404 0.66600001 0.01284492 1.3831509e-38 313 229
-0.0070063197 0.66600001 0.01284492 1.373967e-38 314 229
-0.0058385995 0.66600001 0.01284492 1.3647474e-38 315 229
-0.0046708798 0.66600001 0.01284492 1.3555274e-38 316 229
-0.0035031599 0.66600001 0.01284492 1.3371243e-38 317 229
-0.0023389466 0.667 0.012864206 1.3279045e-38 318 229
-0.0011694733 0.667 0.012864206 1.3186849e-38 319 229
0 0.66600001 0.01284492 1.3186846e-38 320 229
0.00116772 0.66600001 0.01284492 1.3186846e-38 321 229
0.0023354399 0.66600001 0.01284492 1.3093933e-38 322 229
0.0035084197 0.667 0.012864206 1.3093933e-38 323 229
0.0046778931 0.667 0.012864206 1.3184694e-38 324 229
0.0058473665 0.667 0.012864206 1.3184694e-38 325 229
0.0070168395 0.667 0.012864206 1.3183975e-38 326 229
0.0081863133 0.667 0.012864206 1.3091779e-38 327 229
0.0093978662 0.67000002 0.012922067 1.3091777e-38 328 229
0.0105726 0.67000002 0.012922067 1.2999581e-38 329 229
0.011764866 0.671 0.012941353 1.2906667e-38 330 229
0.012941353 0.671 0.012941353 1.2814469e-38 331 229
0.01411784 0.671 0.012941353 1.2722274e-38 332 229
0.01531712 0.67199999 0.012960639 1.2445688e-38 333 229
0.01649536 0.67199999 0.012960639 1.2353849e-38 334 229
0.0177262 0.67400002 0.012999214 1.2261653e-38 335 229
0.018935999 0.67500001 0.0130185 1.2444965e-38 336 229
0.020149305 0.676 0.013037786 1.2352768e-38 337 229
0.021397678 0.67799997 0.013076359 1.2444245e-38 338 229
0.022586439 0.67799997 0.013076359 1.2352049e-38 339 229
0.023810266 0.67900002 0.013095647 1.2352765e-38 340 229
0.025000781 0.67900002 0.013095647 1.2352765e-38 341 229
0.026229866 0.68000001 0.013114933 1.2535359e-38 342 229
0.027502786 0.68199998 0.013153506 1.2535359e-38 343 229
0.028740639 0.68300003 0.013172794 1.2535715e-38 344 229
0.029982001 0.68400002 0.01319208 1.2535715e-38 345 229
0.031318039 0.68699998 0.013249939 1.2352044e-38 346 229
0.032664597 0.69 0.0133078 1.2259848e-38 347 229
0.033923492 0.69099998 0.013327086 1.2167653e-38 348 229
0.035135046 0.69099998 0.013327086 1.1799229e-38 349 229
0.036346599 0.69099998 0.013327086 1.1889627e-38 350 229
0.03755815 0.69099998 0.013327086 1.1889627e-38 351 229
0.038769703 0.69099998 0.013327086 1.2259848e-38 352 229
0.041138459 0.71100003 0.01371282 1.327436e-38 353 229
0.042385083 0.71100003 0.01371282 1.345947e-38 354 229
0.043631699 0.71100003 0.01371282 1.3643501e-38 355 229
0.045067675 0.71399999 0.01377068 1.327688e-38 356 229
0.046319555 0.71399999 0.01377068 1.327688e-38 357 229
0.047371563 0.71100003 0.01371282 1.3460192e-38 358 229
0.048618179 0.71100003 0.01371282 1.3460192e-38 359 229
0.049864799 0.71100003 0.01371282 1.327688e-38 360 229
0.051039528 0.70999998 0.013693533 1.327688e-38 361 229
0.052284397 0.70999998 0.013693533 1.3276877e-38 362 229
0.053529263 0.70999998 0.013693533 1.3184681e-38 363 229
0.054774132 0.70999998 0.013693533 1.3643136e-38 364 229
0.0563346 0.71399999 0.01377068 1.3182158e-38 365 229
0.057586476 0.71399999 0.01377068 1.2812303e-38 366 229
0.059250388 0.71899998 0.013867113 1.2259129e-38 367 229
0.060511041 0.71899998 0.013867113 1.1891438e-38 368 229
0.061857603 0.72000003 0.0138864 1.2352415e-38 369 229
0.063295327 0.722 0.013924973 1.2170902e-38 370 229
0.064561233 0.722 0.013924973 1.2263098e-38 371 229
0.065918319 0.72299999 0.01394426 1.2814467e-38 372 229
0.067185976 0.72299999 0.01394426 1.2814467e-38 373 229
0.068643004 0.72500002 0.013982833 1.3182174e-38 374 229
-0.048602402 0.69300002 0.012150601 1.4291414e-38 280 230
-0.047387339 0.69300002 0.012150601 1.438397e-38 281 230
-0.046039023 0.69099998 0.012115533 1.4108469e-38 282 230
-0.0447626 0.69 0.012097999 1.4293219e-38 283 230
-0.043363437 0.68699998 0.012045399 1.4293582e-38 284 230
-0.041852064 0.68199998 0.011957732 1.4385778e-38 285 230
-0.040537067 0.68000001 0.011922667 1.4386497e-38 286 230
-0.039344799 0.68000001 0.011922667 1.4386497e-38 287 230
-0.038096428 0.67900002 0.011905133 1.4295381e-38 288 230
-0.036851559 0.67799997 0.011887599 1.4203184e-38 289 230
-0.035557602 0.676 0.011852534 1.4386497e-38 290 230
-0.034372345 0.676 0.011852534 1.4386497e-38 291 230
-0.033137999 0.67500001 0.011835 1.4203184e-38 292 230
-0.031954501 0.67500001 0.011835 1.4203184e-38 293 230
-0.030725412 0.67400002 0.011817466 1.4111705e-38 294 230
-0.029455997 0.67199999 0.011782399 1.4111705e-38 295 230
-0.028235679 0.671 0.011764866 1.420354e-38 296 230
-0.027059194 0.671 0.011764866 1.420354e-38 297 230
-0.025882706 0.671 0.011764866 1.4294657e-38 298 230
-0.024669399 0.67000002 0.011747333 1.4294657e-38 299 230
-0.023494666 0.67000002 0.011747333 1.420354e-38 300 230
-0.022319933 0.67000002 0.011747333 1.420354e-38 301 230
-0.0211452 0.67000002 0.011747333 1.420354e-38 302 230
-0.019970467 0.67000002 0.011747333 1.4110986e-38 303 230
-0.018795732 0.67000002 0.011747333 1.401879e-38 304 230
-0.017620999 0.67000002 0.011747333 1.3926595e-38 305 230
-0.016397171 0.66799998 0.011712266 1.4018427e-38 306 230
-0.015225946 0.66799998 0.011712266 1.3926232e-38 307 230
-0.014033679 0.667 0.011694733 1.3834033e-38 308 230
-0.012864206 0.667 0.011694733 1.3834033e-38 309 230
-0.011694733 0.667 0.011694733 1.4108822e-38 310 230
-0.010525259 0.667 0.011694733 1.4016625e-38 311 230
-0.0093557863 0.667 0.011694733 1.4016625e-38 312 230
-0.0081863133 0.667 0.011694733 1.392443e-38 313 230
-0.0070168395 0.667 0.011694733 1.3831509e-38 314 230
-0.0058473665 0.667 0.011694733 1.3739314e-38 315 230
-0.0046778931 0.667 0.011694733 1.373967e-38 316 230
-0.0035084197 0.667 0.011694733 1.3647474e-38 317 230
-0.0023389466 0.667 0.011694733 1.3555274e-38 318 230
-0.0011694733 0.667 0.011694733 1.3371243e-38 319 230
0 0.667 0.011694733 1.3371243e-38 320 230
0.0011694733 0.667 0.011694733 1.3186493e-38 321 230
0.0023389466 0.667 0.011694733 1.3369805e-38 322 230
0.0035084197 0.667 0.011694733 1.3185774e-38 323 230
0.0046849065 0.66799998 0.011712266 1.3276891e-38 324 230
0.0058561331 0.66799998 0.011712266 1.3184694e-38 325 230
0.0070273597 0.66799998 0.011712266 1.3184694e-38 326 230
0.0081985854 0.66799998 0.011712266 1.3092498e-38 327 230
0.0093978662 0.67000002 0.011747333 1.3091779e-38 328 230
0.01058838 0.671 0.011764866 1.2999584e-38 329 230
0.011764866 0.671 0.011764866 1.3089979e-38 330 230
0.012941353 0.671 0.011764866 1.2813751e-38 331 230
0.01413888 0.67199999 0.011782399 1.2721552e-38 332 230
0.01531712 0.67199999 0.011782399 1.2629357e-38 333 230
0.016544454 0.67400002 0.011817466 1.2629357e-38 334 230
0.0177525 0.67500001 0.011835 1.2444965e-38 335 230
0.018964052 0.676 0.011852534 1.2444965e-38 336 230
0.020149305 0.676 0.011852534 1.2352768e-38 337 230
0.021397678 0.67799997 0.011887599 1.2168734e-38 338 230
0.022586439 0.67799997 0.011887599 1.2168734e-38 339 230
0.023810266 0.67900002 0.011905133 1.2352047e-38 340 230
0.025000781 0.67900002 0.011905133 1.2352047e-38 341 230
0.026229866 0.68000001 0.011922667 1.2352047e-38 342 230
0.027502786 0.68199998 0.011957732 1.2352047e-38 343 230
0.028740639 0.68300003 0.011975267 1.2535359e-38 344 230
0.029982001 0.68400002 0.0119928 1.2535359e-38 345 230
0.031318039 0.68699998 0.012045399 1.2351325e-38 346 230
0.032664597 0.69 0.012097999 1.2351325e-38 347 230
0.0338744 0.69 0.012097999 1.2259848e-38 348 230
0.035135046 0.69099998 0.012115533 1.2167653e-38 349 230
0.036451802 0.69300002 0.012150601 1.2259848e-38 350 230
0.037666857 0.69300002 0.012150601 1.2905218e-38 351 230
0.041138459 0.71100003 0.0124662 1.345947e-38 353 230
0.042385083 0.71100003 0.0124662 1.3552385e-38 354 230
0.043631699 0.71100003 0.0124662 1.3460189e-38 355 230
0.049794663 0.70999998 0.012448666 1.3276524e-38 360 230
0.051039528 0.70999998 0.012448666 1.3276524e-38 361 230
0.052284397 0.70999998 0.012448666 1.3460192e-38 362 230
0.053529263 0.70999998 0.012448666 1.3460192e-38 363 230
0.054774132 0.70999998 0.012448666 1.345947e-38 364 230
0.0563346 0.71399999 0.012518799 1.345947e-38 365 230
0.057586476 0.71399999 0.012518799 1.336512e-38 366 230
0.059332799 0.72000003 0.012624 1.2259132e-38 367 230
0.060595199 0.72000003 0.012624 1.1891438e-38 368 230
0.062029421 0.722 0.012659066 1.2168384e-38 369 230
0.063382991 0.72299999 0.012676599 1.2354214e-38 370 230
0.064650662 0.72299999 0.012676599 1.2538606e-38 371 230
0.066100664 0.72500002 0.012711667 1.2631154e-38 372 230
0.067371838 0.72500002 0.012711667 1.2538959e-38 373 230
0.068643004 0.72500002 0.012711667 1.2814469e-38 374 230
0.070107035 0.727 0.012746733 1.2998862e-38 375 230
-0.048602402 0.69300002 0.010935539 1.4291414e-38 280 231
-0.047387339 0.69300002 0.010935539 1.4291414e-38 281 231
-0.04617228 0.69300002 0.010935539 1.4108825e-38 282 231
-0.044827472 0.69099998 0.01090398 1.4293216e-38 283 231
-0.043426562 0.68800002 0.010856641 1.4293938e-38 284 231
-0.041913435 0.68300003 0.01077774 1.4478329e-38 285 231
-0.040537067 0.68000001 0.0107304 1.4294657e-38 286 231
-0.039344799 0.68000001 0.0107304 1.4386852e-38 287 231
-0.038096428 0.67900002 0.010714619 1.4295381e-38 288 231
-0.036851559 0.67799997 0.010698839 1.4203184e-38 289 231
-0.0356628 0.67799997 0.010698839 1.4386497e-38 290 231
-0.034372345 0.676 0.01066728 1.4386497e-38 291 231
-0.033137999 0.67500001 0.0106515 1.4386497e-38 292 231
-0.031954501 0.67500001 0.0106515 1.4479052e-38 293 231
-0.030725412 0.67400002 0.01063572 1.420354e-38 294 231
-0.029455997 0.67199999 0.010604159 1.420354e-38 295 231
-0.028235679 0.671 0.01058838 1.447905e-38 296 231
-0.027059194 0.671 0.01058838 1.4386852e-38 297 231
-0.025882706 0.671 0.01058838 1.4386134e-38 298 231
-0.024669399 0.67000002 0.0105726 1.4386134e-38 299 231
-0.023494666 0.67000002 0.0105726 1.4386497e-38 300 231
-0.022319933 0.67000002 0.0105726 1.4294301e-38 301 231
-0.0211452 0.67000002 0.0105726 1.4386497e-38 302 231
-0.019970467 0.67000002 0.0105726 1.4294301e-38 303 231
-0.018823786 0.671 0.01058838 1.4201742e-38 304 231
-0.017620999 0.67000002 0.0105726 1.4201742e-38 305 231
-0.016446266 0.67000002 0.0105726 1.420174e-38 306 231
-0.015271533 0.67000002 0.0105726 1.420174e-38 307 231
-0.014054719 0.66799998 0.01054104 1.4109541e-38 308 231
-0.012883492 0.66799998 0.01054104 1.392551e-38 309 231
-0.011712266 0.66799998 0.01054104 1.3925513e-38 310 231
-0.01054104 0.66799998 0.01054104 1.3832957e-38 311 231
-0.0093698129 0.66799998 0.01054104 1.4016628e-38 312 231
-0.0081985854 0.66799998 0.01054104 1.3924074e-38 313 231
-0.0070168395 0.667 0.010525259 1.3832231e-38 314 231
-0.0058473665 0.667 0.010525259 1.36482e-38 315 231
-0.0046778931 0.667 0.010525259 1.3831865e-38 316 231
-0.0035084197 0.667 0.010525259 1.3647474e-38 317 231
-0.0023389466 0.667 0.010525259 1.3646754e-38 318 231
-0.0011694733 0.667 0.010525259 1.3646754e-38 319 231
0 0.667 0.010525259 1.35542e-38 320 231
0.0011694733 0.667 0.010525259 1.3462004e-38 321 231
0.0023389466 0.667 0.010525259 1.3369811e-38 322 231
0.0035136798 0.66799998 0.01054104 1.3369811e-38 323 231
0.0046849065 0.66799998 0.01054104 1.3276897e-38 324 231
0.0058736666 0.67000002 0.0105726 1.3184341e-38 325 231
0.0070483997 0.67000002 0.0105726 1.3276174e-38 326 231
0.0082231332 0.67000002 0.0105726 1.3183978e-38 327 231
0.0094118929 0.671 0.01058838 1.3091779e-38 328 231
0.01058838 0.671 0.01058838 1.2999584e-38 329 231
0.011764866 0.671 0.01058838 1.2906667e-38 330 231
0.012960639 0.67199999 0.010604159 1.2814469e-38 331 231
0.01413888 0.67199999 0.010604159 1.2813748e-38 332 231
0.015362706 0.67400002 0.01063572 1.2721552e-38 333 231
0.016569 0.67500001 0.0106515 1.2629354e-38 334 231
0.0177525 0.67500001 0.0106515 1.2537158e-38 335 231
0.018964052 0.676 0.01066728 1.2444961e-38 336 231
0.020208918 0.67799997 0.010698839 1.2352765e-38 337 231
0.021397678 0.67799997 0.010698839 1.2352047e-38 338 231
0.022619752 0.67900002 0.010714619 1.2352047e-38 339 231
0.023810266 0.67900002 0.010714619 1.2535359e-38 340 231
0.025000781 0.67900002 0.010714619 1.2535359e-38 341 231
0.026307013 0.68199998 0.010761959 1.2535359e-38 342 231
0.027502786 0.68199998 0.010761959 1.2535359e-38 343 231
0.028740639 0.68300003 0.01077774 1.2351328e-38 344 231
0.029982001 0.68400002 0.01079352 1.2351328e-38 345 231
0.031318039 0.68699998 0.010840859 1.2351325e-38 346 231
0.032664597 0.69 0.010888199 1.2259129e-38 347 231
0.0338744 0.69 0.010888199 1.2351325e-38 348 231
0.035236739 0.69300002 0.010935539 1.262791e-38 349 231
0.036451802 0.69300002 0.010935539 1.2997419e-38 350 231
0.037666857 0.69300002 0.010935539 1.3642788e-38 351 231
0.058231708 0.722 0.01139316 1.355059e-38 366 231
0.059497613 0.722 0.01139316 1.2352047e-38 367 231
0.060847677 0.72299999 0.01140894 1.2074751e-38 368 231
0.062115334 0.72299999 0.01140894 1.2259501e-38 369 231
0.063382991 0.72299999 0.01140894 1.2353861e-38 370 231
0.064650662 0.72299999 0.01140894 1.2446057e-38 371 231
0.066100664 0.72500002 0.0114405 1.2631157e-38 372 231
0.067371838 0.72500002 0.0114405 1.2631157e-38 373 231
0.068643004 0.72500002 0.0114405 1.2722274e-38 374 231
0.070107035 0.727 0.01147206 1.2998862e-38 375 231
-0.048672531 0.69400001 0.0097345067 1.4199219e-38 280 232
-0.047387339 0.69300002 0.0097204801 1.438397e-38 281 232
-0.04617228 0.69300002 0.0097204801 1.4201023e-38 282 232
-0.044827472 0.69099998 0.0096924258 1.4293219e-38 283 232
-0.043552797 0.69 0.0096783992 1.4293938e-38 284 232
-0.041913435 0.68300003 0.0095802136 1.4386134e-38 285 232
-0.040656291 0.68199998 0.009566186 1.4386852e-38 286 232
-0.039344799 0.68000001 0.0095381327 1.4386852e-38 287 232
-0.038096428 0.67900002 0.009524107 1.420354e-38 288 232
-0.036851559 0.67799997 0.0095100794 1.420354e-38 289 232
-0.0356628 0.67799997 0.0095100794 1.4386497e-38 290 232
-0.034372345 0.676 0.0094820261 1.4386497e-38 291 232
-0.033187091 0.676 0.0094820261 1.4386497e-38 292 232
-0.031954501 0.67500001 0.0094679995 1.4479052e-38 293 232
-0.030771 0.67500001 0.0094679995 1.4295737e-38 294 232
-0.029543666 0.67400002 0.0094539737 1.4295737e-38 295 232
-0.02827776 0.67199999 0.0094259195 1.4386852e-38 296 232
-0.027099518 0.67199999 0.0094259195 1.4386852e-38 297 232
-0.025882706 0.671 0.0094118929 1.4386134e-38 298 232
-0.024706218 0.671 0.0094118929 1.4386134e-38 299 232
-0.023529733 0.671 0.0094118929 1.4386134e-38 300 232
-0.022319933 0.67000002 0.0093978662 1.4386134e-38 301 232
-0.0211452 0.67000002 0.0093978662 1.4478332e-38 302 232
-0.019970467 0.67000002 0.0093978662 1.4385778e-38 303 232
-0.018823786 0.671 0.0094118929 1.4293582e-38 304 232
-0.0176473 0.671 0.0094118929 1.4201386e-38 305 232
-0.016470812 0.671 0.0094118929 1.4201742e-38 306 232
-0.015271533 0.67000002 0.0093978662 1.4109188e-38 307 232
-0.014096799 0.67000002 0.0093978662 1.4109544e-38 308 232
-0.012883492 0.66799998 0.0093698129 1.3925513e-38 309 232
-0.011712266 0.66799998 0.0093698129 1.3832957e-38 310 232
-0.01054104 0.66799998 0.0093698129 1.3832957e-38 311 232
-0.0093698129 0.66799998 0.0093698129 1.383296e-38 312 232
-0.0081985854 0.66799998 0.0093698129 1.383296e-38 313 232
-0.0070273597 0.66799998 0.0093698129 1.3832234e-38 314 232
-0.0058473665 0.667 0.0093557863 1.3832234e-38 315 232
-0.0046778931 0.667 0.0093557863 1.3831512e-38 316 232
-0.0035136798 0.66799998 0.0093698129 1.3647121e-38 317 232
-0.0023389466 0.667 0.0093557863 1.3646401e-38 318 232
-0.0011694733 0.667 0.0093557863 1.3646401e-38 319 232
0 0.66799998 0.0093698129 1.3554205e-38 320 232
0.0011712266 0.66799998 0.0093698129 1.3461651e-38 321 232
0.0023424532 0.66799998 0.0093698129 1.3369811e-38 322 232
0.0035241998 0.67000002 0.0093978662 1.3369811e-38 323 232
0.0046989331 0.67000002 0.0093978662 1.3276541e-38 324 232
0.0058824331 0.671 0.0094118929 1.3184344e-38 325 232
0.0070589199 0.671 0.0094118929 1.3183625e-38 326 232
0.0082354061 0.671 0.0094118929 1.3183625e-38 327 232
0.0094118929 0.671 0.0094118929 1.3091782e-38 328 232
0.01058838 0.671 0.0094118929 1.2999228e-38 329 232
0.011782399 0.67199999 0.0094259195 1.2906669e-38 330 232
0.012960639 0.67199999 0.0094259195 1.2814472e-38 331 232
0.01413888 0.67199999 0.0094259195 1.2722274e-38 332 232
0.015362706 0.67400002 0.0094539737 1.2630078e-38 333 232
0.016569 0.67500001 0.0094679995 1.2630075e-38 334 232
0.017778801 0.676 0.0094820261 1.2353849e-38 335 232
0.018964052 0.676 0.0094820261 1.2444961e-38 336 232
0.020208918 0.67799997 0.0095100794 1.2352765e-38 337 232
0.021397678 0.67799997 0.0095100794 1.2168734e-38 338 232
0.022619752 0.67900002 0.009524107 1.2168734e-38 339 232
0.023810266 0.67900002 0.009524107 1.2352047e-38 340 232
0.025037598 0.68000001 0.0095381327 1.2352047e-38 341 232
0.026307013 0.68199998 0.009566186 1.2535715e-38 342 232
0.027543113 0.68300003 0.0095802136 1.2535715e-38 343 232
0.02878272 0.68400002 0.0095942402 1.2535715e-38 344 232
0.030069664 0.68599999 0.0096222926 1.2351325e-38 345 232
0.031363625 0.68800002 0.0096503468 1.2351325e-38 346 232
0.032664597 0.69 0.0096783992 1.2259129e-38 347 232
0.034021679 0.69300002 0.0097204801 1.2535359e-38 348 232
0.035389278 0.69599998 0.0097625591 1.2812306e-38 349 232
0.036451802 0.69300002 0.0097204801 1.2907018e-38 350 232
0.037666857 0.69300002 0.0097204801 1.3367996e-38 351 232
0.061016005 0.72500002 0.010169334 1.2350977e-38 368 232
0.062287167 0.72500002 0.010169334 1.2535009e-38 369 232
0.063558333 0.72500002 0.010169334 1.2260944e-38 370 232
0.064829499 0.72500002 0.010169334 1.2721921e-38 371 232
0.06628301 0.727 0.010197386 1.2815193e-38 372 232
0.067557678 0.727 0.010197386 1.2630801e-38 373 232
0.06883236 0.727 0.010197386 1.2538962e-38 374 232
0.070203468 0.72799999 0.010211413 1.281519e-38 375 232
-0.048672531 0.69400001 0.0085176928 1.4475085e-38 280 233
-0.047455717 0.69400001 0.0085176928 1.4567282e-38 281 233
-0.04617228 0.69300002 0.0085054198 1.429214e-38 282 233
-0.044827472 0.69099998 0.008480873 1.4568727e-38 283 233
-0.043552797 0.69 0.0084686 1.4386134e-38 284 233
-0.041974798 0.68400002 0.0083949603 1.4478329e-38 285 233
-0.040656291 0.68199998 0.0083704125 1.4386497e-38 286 233
-0.039460517 0.68199998 0.0083704125 1.4386497e-38 287 233
-0.038152531 0.68000001 0.0083458666 1.4386497e-38 288 233
-0.036905911 0.67900002 0.0083335936 1.4386497e-38 289 233
-0.0356628 0.67799997 0.0083213197 1.4386497e-38 290 233
-0.034372345 0.676 0.0082967728 1.4386497e-38 291 233
-0.033187091 0.676 0.0082967728 1.4386497e-38 292 233
-0.031954501 0.67500001 0.0082844999 1.4479052e-38 293 233
-0.030771 0.67500001 0.0082844999 1.4386852e-38 294 233
-0.029543666 0.67400002 0.0082722269 1.4386852e-38 295 233
-0.02836192 0.67400002 0.0082722269 1.4386852e-38 296 233
-0.027099518 0.67199999 0.00824768 1.4294657e-38 297 233
-0.025921278 0.67199999 0.00824768 1.4386134e-38 298 233
-0.024706218 0.671 0.0082354061 1.4386134e-38 299 233
-0.023529733 0.671 0.0082354061 1.4385778e-38 300 233
-0.022353247 0.671 0.0082354061 1.4385778e-38 301 233
-0.021176759 0.671 0.0082354061 1.4385778e-38 302 233
-0.020000271 0.671 0.0082354061 1.4385778e-38 303 233
-0.018851839 0.67199999 0.00824768 1.447725e-38 304 233
-0.0176473 0.671 0.0082354061 1.447725e-38 305 233
-0.016470812 0.671 0.0082354061 1.420174e-38 306 233
-0.015294326 0.671 0.0082354061 1.4109544e-38 307 233
-0.01411784 0.671 0.0082354061 1.4109544e-38 308 233
-0.012922067 0.67000002 0.0082231332 1.3925513e-38 309 233
