# .PCD v.7 - Point Cloud Data file format
FIELDS x y z rgb imX imY
SIZE 4 4 4 4 4 4
TYPE F F F F F F
COUNT 1 1 1 1 1 1
WIDTH 847
HEIGHT 1
VIEWPOINT 0 0 0 1 0 0 0
POINTS 847
DATA ascii
0.053536277 0.727 -0.019120099 2.1339351e-39 362 255
0.054886345 0.72799999 -0.0191464 2.0417395e-39 363 255
0.056162767 0.72799999 -0.0191464 8.4858992e-40 364 255
0.057439197 0.72799999 -0.0191464 4.798088e-40 365 255
0.058473669 0.72500002 -0.0190675 2.2062043e-41 366 255
0.059744831 0.72500002 -0.0190675 2.386131e-41 367 255
0.061016005 0.72500002 -0.0190675 1.0336818e-39 368 255
0.062287167 0.72500002 -0.0190675 2.0478338e-39 369 255
0.063821331 0.72799999 -0.0191464 4.8057713e-39 370 255
-0.1085664 0.72000003 -0.020198401 1.917345e-38 234 256
-0.107304 0.72000003 -0.020198401 1.9726265e-38 235 256
-0.1060416 0.72000003 -0.020198401 1.5031869e-38 236 256
-0.1047792 0.72000003 -0.020198401 8.1175567e-39 237 256
-0.10351679 0.72000003 -0.020198401 6.5763638e-40 238 256
-0.10253844 0.722 -0.020254506 7.4983201e-40 239 256
-0.10127253 0.722 -0.020254506 3.4148537e-39 240 256
-0.10000663 0.722 -0.020254506 3.322658e-39 241 256
-0.098467201 0.72000003 -0.020198401 3.2308155e-39 242 256
-0.097204804 0.72000003 -0.020198401 3.2308155e-39 243 256
-0.0959424 0.72000003 -0.020198401 3.1382612e-39 244 256
-0.094680004 0.72000003 -0.020198401 3.1382612e-39 245 256
-0.0934176 0.72000003 -0.020198401 3.1375423e-39 246 256
-0.092155196 0.72000003 -0.020198401 3.0453467e-39 247 256
-0.090892807 0.72000003 -0.020198401 2.9535168e-39 248 256
-0.089630403 0.72000003 -0.020198401 2.9535168e-39 249 256
-0.088367999 0.72000003 -0.020198401 2.7695165e-39 250 256
-0.08734756 0.722 -0.020254506 3.0464621e-39 251 256
-0.086081654 0.722 -0.020254506 2.4072626e-39 252 256
-0.084815748 0.722 -0.020254506 2.4072626e-39 253 256
-0.083549835 0.722 -0.020254506 1.4903692e-39 254 256
-0.082283929 0.722 -0.020254506 1.3056192e-39 255 256
-0.081018023 0.722 -0.020254506 1.5811299e-39 256 256
-0.0795312 0.72000003 -0.020198401 1.7658813e-39 257 256
-0.078268804 0.72000003 -0.020198401 1.7665974e-39 258 256
-0.0770064 0.72000003 -0.020198401 1.9509886e-39 259 256
-0.075743996 0.72000003 -0.020198401 1.585083e-39 260 256
-0.074481606 0.72000003 -0.020198401 1.7691141e-39 261 256
-0.073219202 0.72000003 -0.020198401 2.1357386e-39 262 256
-0.071956798 0.72000003 -0.020198401 2.1357386e-39 263 256
-0.070694394 0.72000003 -0.020198401 2.5945602e-39 264 256
-0.069432005 0.72000003 -0.020198401 2.5945602e-39 265 256
-0.068169601 0.72000003 -0.020198401 2.6863929e-39 266 256
-0.066907197 0.72000003 -0.020198401 2.6863929e-39 267 256
-0.065644801 0.72000003 -0.020198401 2.7775081e-39 268 256
-0.064382397 0.72000003 -0.020198401 2.7775081e-39 269 256
-0.06312 0.72000003 -0.020198401 2.6863886e-39 270 256
-0.061857603 0.72000003 -0.020198401 2.7785857e-39 271 256
-0.060595199 0.72000003 -0.020198401 2.5037939e-39 272 256
-0.059497613 0.722 -0.020254506 2.5037939e-39 273 256
-0.058231708 0.722 -0.020254506 2.4123199e-39 274 256
-0.056965802 0.722 -0.020254506 2.4123199e-39 275 256
-0.055777039 0.72299999 -0.020282559 2.871503e-39 276 256
-0.054660168 0.72500002 -0.020338668 3.1480885e-39 277 256
-0.053388998 0.72500002 -0.020338668 3.6083449e-39 278 256
-0.052117832 0.72500002 -0.020338668 3.7927362e-39 279 256
-0.050846666 0.72500002 -0.020338668 4.343389e-39 280 256
-0.0495755 0.72500002 -0.020338668 4.4355847e-39 281 256
-0.048304334 0.72500002 -0.020338668 4.0696776e-39 282 256
-0.047033165 0.72500002 -0.020338668 4.2537088e-39 283 256
-0.045761999 0.72500002 -0.020338668 4.2537088e-39 284 256
-0.044368099 0.72299999 -0.020282559 4.2537088e-39 285 256
-0.043100435 0.72299999 -0.020282559 4.4366609e-39 286 256
-0.041832779 0.72299999 -0.020282559 4.5288565e-39 287 256
-0.040565118 0.72299999 -0.020282559 4.3455442e-39 288 256
-0.039297458 0.72299999 -0.020282559 4.4377399e-39 289 256
-0.038029801 0.72299999 -0.020282559 4.3462631e-39 290 256
-0.036762137 0.72299999 -0.020282559 4.3462631e-39 291 256
-0.035494477 0.72299999 -0.020282559 4.4377399e-39 292 256
-0.03422682 0.72299999 -0.020282559 4.4377399e-39 293 256
-0.032959159 0.72299999 -0.020282559 4.8043616e-39 294 256
-0.031779166 0.72500002 -0.020338668 4.896916e-39 295 256
-0.030423839 0.72299999 -0.020282559 4.7136009e-39 296 256
-0.029156178 0.72299999 -0.020282559 4.7136009e-39 297 256
-0.02788852 0.72299999 -0.020282559 4.7143198e-39 298 256
-0.026620859 0.72299999 -0.020282559 4.6221241e-39 299 256
-0.025353199 0.72299999 -0.020282559 4.7143198e-39 300 256
-0.024085538 0.72299999 -0.020282559 4.6221241e-39 301 256
-0.02281788 0.72299999 -0.020282559 4.8057965e-39 302 256
-0.021550218 0.72299999 -0.020282559 4.8057965e-39 303 256
-0.020338668 0.72500002 -0.020338668 4.5310075e-39 304 256
-0.0190675 0.72500002 -0.020338668 4.5310075e-39 305 256
-0.017796334 0.72500002 -0.020338668 4.5306516e-39 306 256
-0.016525166 0.72500002 -0.020338668 4.5306516e-39 307 256
-0.015254001 0.72500002 -0.020338668 4.7139638e-39 308 256
-0.013982833 0.72500002 -0.020338668 4.7139638e-39 309 256
-0.012711667 0.72500002 -0.020338668 4.8057993e-39 310 256
-0.0114405 0.72500002 -0.020338668 4.897995e-39 311 256
-0.010169334 0.72500002 -0.020338668 4.8057993e-39 312 256
-0.0088981669 0.72500002 -0.020338668 4.897995e-39 313 256
-0.0076270006 0.72500002 -0.020338668 4.897995e-39 314 256
-0.0063558333 0.72500002 -0.020338668 5.0820275e-39 315 256
-0.0050846669 0.72500002 -0.020338668 5.174579e-39 316 256
-0.0038135003 0.72500002 -0.020338668 5.174579e-39 317 256
-0.0025493465 0.727 -0.020394772 4.991264e-39 318 256
-0.0012711667 0.72500002 -0.020338668 4.991264e-39 319 256
0 0.72500002 -0.020338668 4.7154002e-39 320 256
0.0012711667 0.72500002 -0.020338668 4.7154002e-39 321 256
0.0025493465 0.727 -0.020394772 4.7154002e-39 322 256
0.0038135003 0.72500002 -0.020338668 4.7154002e-39 323 256
0.0050846669 0.72500002 -0.020338668 4.7154002e-39 324 256
0.0063558333 0.72500002 -0.020338668 4.7154002e-39 325 256
0.0076270006 0.72500002 -0.020338668 4.8987124e-39 326 256
0.0088981669 0.72500002 -0.020338668 4.8065154e-39 327 256
0.010169334 0.72500002 -0.020338668 4.8065154e-39 328 256
0.0114405 0.72500002 -0.020338668 4.8987124e-39 329 256
0.012676599 0.72299999 -0.020282559 4.8065182e-39 330 256
0.01394426 0.72299999 -0.020282559 4.8065182e-39 331 256
0.015254001 0.72500002 -0.020338668 4.7139666e-39 332 256
0.016525166 0.72500002 -0.020338668 4.7139666e-39 333 256
0.017796334 0.72500002 -0.020338668 4.8061623e-39 334 256
0.0190675 0.72500002 -0.020338668 4.8061623e-39 335 256
0.020338668 0.72500002 -0.020338668 4.897639e-39 336 256
0.021609833 0.72500002 -0.020338668 4.897639e-39 337 256
0.022880999 0.72500002 -0.020338668 4.8065182e-39 338 256
0.024152167 0.72500002 -0.020338668 4.8987152e-39 339 256
0.025423333 0.72500002 -0.020338668 4.716119e-39 340 256
0.026694499 0.72500002 -0.020338668 4.716119e-39 341 256
0.027965667 0.72500002 -0.020338668 4.716119e-39 342 256
0.029236834 0.72500002 -0.020338668 4.6239234e-39 343 256
0.030508002 0.72500002 -0.020338668 4.440258e-39 344 256
0.031779166 0.72500002 -0.020338668 4.5324536e-39 345 256
0.033050332 0.72500002 -0.020338668 4.8994341e-39 346 256
0.034321502 0.72500002 -0.020338668 4.8994341e-39 347 256
0.035592668 0.72500002 -0.020338668 4.7168379e-39 348 256
0.036863834 0.72500002 -0.020338668 4.5328068e-39 349 256
0.038135 0.72500002 -0.020338668 4.5324508e-39 350 256
0.039406165 0.72500002 -0.020338668 4.5324508e-39 351 256
0.040677335 0.72500002 -0.020338668 4.5324536e-39 352 256
0.041948501 0.72500002 -0.020338668 4.5324536e-39 353 256
0.043219667 0.72500002 -0.020338668 4.6235731e-39 354 256
0.044368099 0.72299999 -0.020282559 4.7157687e-39 355 256
0.04563576 0.72299999 -0.020282559 4.715047e-39 356 256
0.046903417 0.72299999 -0.020282559 4.9916325e-39 357 256
0.048304334 0.72500002 -0.020338668 4.5313732e-39 358 256
0.0495755 0.72500002 -0.020338668 4.2551465e-39 359 256
0.050846666 0.72500002 -0.020338668 4.347705e-39 360 256
0.052117832 0.72500002 -0.020338668 4.2555094e-39 361 256
0.053388998 0.72500002 -0.020338668 4.2537116e-39 362 256
0.054660168 0.72500002 -0.020338668 4.0696804e-39 363 256
0.055931333 0.72500002 -0.020338668 3.9778477e-39 364 256
0.057202499 0.72500002 -0.020338668 3.9778477e-39 365 256
0.058473669 0.72500002 -0.020338668 3.2438784e-39 366 256
0.059744831 0.72500002 -0.020338668 3.0594872e-39 367 256
0.061016005 0.72500002 -0.020338668 3.2420834e-39 368 256
0.062287167 0.72500002 -0.020338668 2.9651363e-39 369 256
0.063558333 0.72500002 -0.020338668 2.7814752e-39 370 256
0.064829499 0.72500002 -0.020338668 2.320497e-39 371 256
0.066100664 0.72500002 -0.020338668 3.5172227e-39 372 256
0.067185976 0.72299999 -0.020282559 4.7157659e-39 373 256
0.06845364 0.72299999 -0.020282559 3.9860748e-39 374 256
0.069721296 0.72299999 -0.020282559 7.6739e-39 375 256
-0.10841561 0.71899998 -0.021430992 1.6407575e-38 234 257
-0.10715496 0.71899998 -0.021430992 1.6776718e-38 235 257
-0.10589432 0.71899998 -0.021430992 1.3366221e-38 236 257
-0.10463367 0.71899998 -0.021430992 6.9125269e-39 237 257
-0.10337302 0.71899998 -0.021430992 1.2082766e-39 238 257
-0.10225441 0.72000003 -0.021460801 2.1298728e-39 239 257
-0.100992 0.72000003 -0.021460801 3.5985218e-39 240 257
-0.099729598 0.72000003 -0.021460801 3.5063262e-39 241 257
-0.098467201 0.72000003 -0.021460801 3.2304596e-39 242 257
-0.097204804 0.72000003 -0.021460801 3.3226552e-39 243 257
-0.0959424 0.72000003 -0.021460801 3.3215762e-39 244 257
-0.094680004 0.72000003 -0.021460801 3.3215762e-39 245 257
-0.0934176 0.72000003 -0.021460801 3.3215762e-39 246 257
-0.092155196 0.72000003 -0.021460801 3.3215762e-39 247 257
-0.090892807 0.72000003 -0.021460801 2.9545958e-39 248 257
-0.089630403 0.72000003 -0.021460801 2.9545958e-39 249 257
-0.088367999 0.72000003 -0.021460801 2.6791187e-39 250 257
-0.087105595 0.72000003 -0.021460801 2.8635114e-39 251 257
-0.086081654 0.722 -0.021520413 1.7626149e-39 252 257
-0.084815748 0.722 -0.021520413 1.6704192e-39 253 257
-0.083549835 0.722 -0.021520413 1.4857001e-39 254 257
-0.082056001 0.72000003 -0.021460801 1.5778957e-39 255 257
-0.080793604 0.72000003 -0.021460801 1.3953037e-39 256 257
-0.0795312 0.72000003 -0.021460801 1.6715305e-39 257 257
-0.078268804 0.72000003 -0.021460801 1.580411e-39 258 257
-0.0770064 0.72000003 -0.021460801 1.8569965e-39 259 257
-0.075743996 0.72000003 -0.021460801 1.7665974e-39 260 257
-0.074481606 0.72000003 -0.021460801 1.858793e-39 261 257
-0.073219202 0.72000003 -0.021460801 2.1339407e-39 262 257
-0.071956798 0.72000003 -0.021460801 2.2261364e-39 263 257
-0.070694394 0.72000003 -0.021460801 2.4094486e-39 264 257
-0.069432005 0.72000003 -0.021460801 2.5016443e-39 265 257
-0.068169601 0.72000003 -0.021460801 2.3183292e-39 266 257
-0.066907197 0.72000003 -0.021460801 2.3183292e-39 267 257
-0.065644801 0.72000003 -0.021460801 2.5020002e-39 268 257
-0.064382397 0.72000003 -0.021460801 2.5020002e-39 269 257
-0.06312 0.72000003 -0.021460801 2.5941958e-39 270 257
-0.061857603 0.72000003 -0.021460801 2.5941958e-39 271 257
-0.060595199 0.72000003 -0.021460801 2.3190481e-39 272 257
-0.059497613 0.722 -0.021520413 2.3190481e-39 273 257
-0.058231708 0.722 -0.021520413 2.1357358e-39 274 257
-0.056965802 0.722 -0.021520413 2.1357358e-39 275 257
-0.055699892 0.722 -0.021520413 2.6871117e-39 276 257
-0.054509375 0.72299999 -0.021550218 2.871503e-39 277 257
-0.053241719 0.72299999 -0.021550218 3.3306819e-39 278 257
-0.052117832 0.72500002 -0.021609833 3.5150731e-39 279 257
-0.050846666 0.72500002 -0.021609833 3.8831368e-39 280 257
-0.0495755 0.72500002 -0.021609833 3.9753324e-39 281 257
-0.048304334 0.72500002 -0.021609833 3.5172283e-39 282 257
-0.046903417 0.72299999 -0.021550218 3.6094239e-39 283 257
-0.04563576 0.72299999 -0.021550218 3.5172283e-39 284 257
-0.044368099 0.72299999 -0.021550218 3.6094239e-39 285 257
-0.043100435 0.72299999 -0.021550218 3.7927334e-39 286 257
-0.041832779 0.72299999 -0.021550218 3.7927334e-39 287 257
-0.040565118 0.72299999 -0.021550218 3.6094211e-39 288 257
-0.039297458 0.72299999 -0.021550218 3.7934523e-39 289 257
-0.038029801 0.72299999 -0.021550218 3.8856507e-39 290 257
-0.036762137 0.72299999 -0.021550218 3.7934551e-39 291 257
-0.035494477 0.72299999 -0.021550218 3.9771275e-39 292 257
-0.03422682 0.72299999 -0.021550218 3.9771275e-39 293 257
-0.032959159 0.72299999 -0.021550218 4.1604397e-39 294 257
-0.031691495 0.72299999 -0.021550218 4.1604397e-39 295 257
-0.030423839 0.72299999 -0.021550218 4.2529927e-39 296 257
-0.029156178 0.72299999 -0.021550218 4.2529927e-39 297 257
-0.02788852 0.72299999 -0.021550218 4.2537088e-39 298 257
-0.026620859 0.72299999 -0.021550218 4.0696776e-39 299 257
-0.025353199 0.72299999 -0.021550218 4.0696776e-39 300 257
-0.024085538 0.72299999 -0.021550218 4.2537088e-39 301 257
-0.02281788 0.72299999 -0.021550218 4.3455442e-39 302 257
-0.021550218 0.72299999 -0.021550218 4.3455442e-39 303 257
-0.020338668 0.72500002 -0.021609833 4.2537088e-39 304 257
-0.0190675 0.72500002 -0.021609833 4.2537088e-39 305 257
-0.017747238 0.72299999 -0.021550218 4.2537116e-39 306 257
-0.01647958 0.72299999 -0.021550218 4.3459072e-39 307 257
-0.015211919 0.72299999 -0.021550218 4.1625949e-39 308 257
-0.01394426 0.72299999 -0.021550218 4.0703993e-39 309 257
-0.012676599 0.72299999 -0.021550218 4.3462631e-39 310 257
-0.01140894 0.72299999 -0.021550218 4.4384587e-39 311 257
-0.01014128 0.72299999 -0.021550218 4.6210521e-39 312 257
-0.0088736191 0.72299999 -0.021550218 4.7132478e-39 313 257
-0.0076059597 0.72299999 -0.021550218 4.621771e-39 314 257
-0.0063382997 0.72299999 -0.021550218 4.7139666e-39 315 257
-0.0050706398 0.72299999 -0.021550218 4.6228472e-39 316 257
-0.0038029798 0.72299999 -0.021550218 4.6228472e-39 317 257
-0.0025423334 0.72500002 -0.021609833 4.7154002e-39 318 257
-0.0012676599 0.72299999 -0.021550218 4.6232031e-39 319 257
0 0.72299999 -0.021550218 4.5317264e-39 320 257
0.0012676599 0.72299999 -0.021550218 4.5317264e-39 321 257
0.0025353199 0.72299999 -0.021550218 4.6232031e-39 322 257
0.0038135003 0.72500002 -0.021609833 4.6232031e-39 323 257
0.0050706398 0.72299999 -0.021550218 4.6232003e-39 324 257
0.0063382997 0.72299999 -0.021550218 4.6232003e-39 325 257
0.0076059597 0.72299999 -0.021550218 4.6232031e-39 326 257
0.0088736191 0.72299999 -0.021550218 4.6232031e-39 327 257
0.01014128 0.72299999 -0.021550218 4.5310075e-39 328 257
0.01140894 0.72299999 -0.021550218 4.6232031e-39 329 257
0.012676599 0.72299999 -0.021550218 4.6228472e-39 330 257
0.01394426 0.72299999 -0.021550218 4.5306516e-39 331 257
0.015211919 0.72299999 -0.021550218 4.7139666e-39 332 257
0.01647958 0.72299999 -0.021550218 4.7139666e-39 333 257
0.017747238 0.72299999 -0.021550218 4.7139666e-39 334 257
0.019014901 0.72299999 -0.021550218 4.7139666e-39 335 257
0.020282559 0.72299999 -0.021550218 4.89656e-39 336 257
0.021550218 0.72299999 -0.021550218 4.89656e-39 337 257
0.02281788 0.72299999 -0.021550218 4.8054434e-39 338 257
0.024085538 0.72299999 -0.021550218 4.897639e-39 339 257
0.025353199 0.72299999 -0.021550218 4.8065154e-39 340 257
0.026620859 0.72299999 -0.021550218 4.8065154e-39 341 257
0.02788852 0.72299999 -0.021550218 4.7154002e-39 342 257
0.029236834 0.72500002 -0.021609833 4.6232031e-39 343 257
0.030508002 0.72500002 -0.021609833 4.62285e-39 344 257
0.031691495 0.72299999 -0.021550218 4.62285e-39 345 257
0.032959159 0.72299999 -0.021550218 4.715403e-39 346 257
0.034321502 0.72500002 -0.021609833 4.715403e-39 347 257
0.035592668 0.72500002 -0.021609833 4.7154002e-39 348 257
0.036863834 0.72500002 -0.021609833 4.6232031e-39 349 257
0.038135 0.72500002 -0.021609833 4.7161218e-39 350 257
0.039406165 0.72500002 -0.021609833 4.6235675e-39 351 257
0.040677335 0.72500002 -0.021609833 4.5313732e-39 352 257
0.041948501 0.72500002 -0.021609833 4.5313732e-39 353 257
0.043219667 0.72500002 -0.021609833 4.7150498e-39 354 257
0.044368099 0.72299999 -0.021550218 4.7150498e-39 355 257
0.04563576 0.72299999 -0.021550218 4.899081e-39 356 257
0.046903417 0.72299999 -0.021550218 4.899081e-39 357 257
0.048171077 0.72299999 -0.021550218 4.7157659e-39 358 257
0.049438741 0.72299999 -0.021550218 4.7157659e-39 359 257
0.050706398 0.72299999 -0.021550218 4.7164848e-39 360 257
0.051974058 0.72299999 -0.021550218 4.7164848e-39 361 257
0.053241719 0.72299999 -0.021550218 4.9916297e-39 362 257
0.054509375 0.72299999 -0.021550218 4.9916297e-39 363 257
0.055777039 0.72299999 -0.021550218 4.9916297e-39 364 257
0.057202499 0.72500002 -0.021609833 5.0838253e-39 365 257
0.058473669 0.72500002 -0.021609833 4.9005103e-39 366 257
0.059744831 0.72500002 -0.021609833 4.9927059e-39 367 257
0.061016005 0.72500002 -0.021609833 4.9916297e-39 368 257
0.062287167 0.72500002 -0.021609833 4.8994341e-39 369 257
0.063558333 0.72500002 -0.021609833 4.6235731e-39 370 257
0.064650662 0.72299999 -0.021550218 4.5310173e-39 371 257
0.065827139 0.722 -0.021520413 4.0703993e-39 372 257
0.067093052 0.722 -0.021520413 3.4250299e-39 373 257
0.068358958 0.722 -0.021520413 2.3844495e-41 374 257
0.069335558 0.71899998 -0.021430992 1.8735192e-39 375 257
0.070596211 0.71899998 -0.021430992 1.3467084e-38 376 257
-0.10841561 0.71899998 -0.022691639 1.5487048e-38 234 258
-0.10715496 0.71899998 -0.022691639 1.6316809e-38 235 258
-0.10589432 0.71899998 -0.022691639 1.3088908e-38 236 258
-0.10463367 0.71899998 -0.022691639 6.4508228e-39 237 258
-0.10337302 0.71899998 -0.022691639 2.1255568e-39 238 258
-0.10225441 0.72000003 -0.022723202 3.0475131e-39 239 258
-0.100992 0.72000003 -0.022723202 3.781118e-39 240 258
-0.099729598 0.72000003 -0.022723202 3.596368e-39 241 258
-0.098467201 0.72000003 -0.022723202 3.4130558e-39 242 258
-0.097204804 0.72000003 -0.022723202 3.4130558e-39 243 258
-0.095809139 0.71899998 -0.022691639 3.4130558e-39 244 258
-0.094548494 0.71899998 -0.022691639 3.4130558e-39 245 258
-0.0934176 0.72000003 -0.022723202 3.1375451e-39 246 258
-0.092155196 0.72000003 -0.022723202 3.3215762e-39 247 258
-0.090892807 0.72000003 -0.022723202 3.1382668e-39 248 258
-0.089630403 0.72000003 -0.022723202 3.1382668e-39 249 258
-0.088367999 0.72000003 -0.022723202 2.7705955e-39 250 258
-0.087105595 0.72000003 -0.022723202 3.0471824e-39 251 258
-0.085843205 0.72000003 -0.022723202 1.6696976e-39 252 258
-0.084580801 0.72000003 -0.022723202 1.6696976e-39 253 258
-0.083318397 0.72000003 -0.022723202 1.2105425e-39 254 258
-0.082056001 0.72000003 -0.022723202 1.4867693e-39 255 258
-0.080793604 0.72000003 -0.022723202 1.3041773e-39 256 258
-0.0795312 0.72000003 -0.022723202 1.3963729e-39 257 258
-0.078268804 0.72000003 -0.022723202 1.4885685e-39 258 258
-0.0770064 0.72000003 -0.022723202 1.8573496e-39 259 258
-0.075743996 0.72000003 -0.022723202 1.9495467e-39 260 258
-0.074481606 0.72000003 -0.022723202 2.0417423e-39 261 258
-0.073219202 0.72000003 -0.022723202 2.0417451e-39 262 258
-0.071956798 0.72000003 -0.022723202 2.1339407e-39 263 258
-0.070694394 0.72000003 -0.022723202 2.1339407e-39 264 258
-0.069432005 0.72000003 -0.022723202 2.1339407e-39 265 258
-0.068169601 0.72000003 -0.022723202 1.9506257e-39 266 258
-0.066907197 0.72000003 -0.022723202 2.1346568e-39 267 258
-0.065644801 0.72000003 -0.022723202 2.1339351e-39 268 258
-0.064382397 0.72000003 -0.022723202 2.2264895e-39 269 258
-0.06312 0.72000003 -0.022723202 2.3186851e-39 270 258
-0.061857603 0.72000003 -0.022723202 2.3186851e-39 271 258
-0.060595199 0.72000003 -0.022723202 2.2264895e-39 272 258
-0.059497613 0.722 -0.022786319 2.2264895e-39 273 258
-0.058231708 0.722 -0.022786319 2.1346568e-39 274 258
-0.056965802 0.722 -0.022786319 2.1346568e-39 275 258
-0.055699892 0.722 -0.022786319 2.5941958e-39 276 258
-0.054509375 0.72299999 -0.02281788 2.7785885e-39 277 258
-0.053241719 0.72299999 -0.02281788 2.9626224e-39 278 258
-0.051974058 0.72299999 -0.02281788 3.054818e-39 279 258
-0.050706398 0.72299999 -0.02281788 3.4228803e-39 280 258
-0.0495755 0.72500002 -0.022880999 3.5150773e-39 281 258
-0.048171077 0.72299999 -0.02281788 3.0569718e-39 282 258
-0.046903417 0.72299999 -0.02281788 3.0569718e-39 283 258
-0.04563576 0.72299999 -0.02281788 2.9651363e-39 284 258
-0.044368099 0.72299999 -0.02281788 2.9651363e-39 285 258
-0.043040827 0.722 -0.022786319 3.2402841e-39 286 258
-0.041774917 0.722 -0.022786319 3.3324811e-39 287 258
-0.040509012 0.722 -0.022786319 3.3324811e-39 288 258
-0.039243106 0.722 -0.022786319 3.3324811e-39 289 258
-0.0379772 0.722 -0.022786319 3.4253956e-39 290 258
-0.036762137 0.72299999 -0.02281788 3.4253956e-39 291 258
-0.035494477 0.72299999 -0.02281788 3.5168724e-39 292 258
-0.03422682 0.72299999 -0.02281788 3.5168724e-39 293 258
-0.032959159 0.72299999 -0.02281788 3.7920201e-39 294 258
-0.031691495 0.72299999 -0.02281788 3.7920201e-39 295 258
-0.030423839 0.72299999 -0.02281788 3.9760485e-39 296 258
-0.029156178 0.72299999 -0.02281788 3.9760485e-39 297 258
-0.02788852 0.72299999 -0.02281788 3.8849318e-39 298 258
-0.026584039 0.722 -0.022786319 3.7927362e-39 299 258
-0.025318133 0.722 -0.022786319 3.7927362e-39 300 258
-0.024052227 0.722 -0.022786319 3.9771275e-39 301 258
-0.022786319 0.722 -0.022786319 3.9774834e-39 302 258
-0.021520413 0.722 -0.022786319 3.9774834e-39 303 258
-0.020282559 0.72299999 -0.02281788 3.884929e-39 304 258
-0.019014901 0.72299999 -0.02281788 3.9774834e-39 305 258
-0.017747238 0.72299999 -0.02281788 4.1604397e-39 306 258
-0.01647958 0.72299999 -0.02281788 4.1604397e-39 307 258
-0.015211919 0.72299999 -0.02281788 4.0693245e-39 308 258
-0.01394426 0.72299999 -0.02281788 3.9771275e-39 309 258
-0.012676599 0.72299999 -0.02281788 4.1604397e-39 310 258
-0.01140894 0.72299999 -0.02281788 4.2529955e-39 311 258
-0.01014128 0.72299999 -0.02281788 4.2522724e-39 312 258
-0.0088736191 0.72299999 -0.02281788 4.4363049e-39 313 258
-0.0076059597 0.72299999 -0.02281788 4.4363049e-39 314 258
-0.0063382997 0.72299999 -0.02281788 4.5285006e-39 315 258
-0.0050706398 0.72299999 -0.02281788 4.3451883e-39 316 258
-0.0038029798 0.72299999 -0.02281788 4.4373839e-39 317 258
-0.0025353199 0.72299999 -0.02281788 4.6210521e-39 318 258
-0.0012676599 0.72299999 -0.02281788 4.6210521e-39 319 258
0 0.72299999 -0.02281788 4.621771e-39 320 258
0.0012676599 0.72299999 -0.02281788 4.4377399e-39 321 258
0.0025353199 0.72299999 -0.02281788 4.6210521e-39 322 258
0.0038029798 0.72299999 -0.02281788 4.8054434e-39 323 258
0.0050706398 0.72299999 -0.02281788 4.5306516e-39 324 258
0.0063382997 0.72299999 -0.02281788 4.5306516e-39 325 258
0.0076059597 0.72299999 -0.02281788 4.621771e-39 326 258
0.0088736191 0.72299999 -0.02281788 4.621771e-39 327 258
0.01014128 0.72299999 -0.02281788 4.7139666e-39 328 258
0.01140894 0.72299999 -0.02281788 4.7139666e-39 329 258
0.012659066 0.722 -0.022786319 4.5306544e-39 330 258
0.013924973 0.722 -0.022786319 4.5306544e-39 331 258
0.015190879 0.722 -0.022786319 4.5306544e-39 332 258
0.01647958 0.72299999 -0.02281788 4.5306544e-39 333 258
0.017747238 0.72299999 -0.02281788 4.7132478e-39 334 258
0.019014901 0.72299999 -0.02281788 4.897639e-39 335 258
0.020282559 0.72299999 -0.02281788 4.7139666e-39 336 258
0.021550218 0.72299999 -0.02281788 4.7139666e-39 337 258
0.02281788 0.72299999 -0.02281788 4.8054434e-39 338 258
0.024085538 0.72299999 -0.02281788 4.897639e-39 339 258
0.025318133 0.722 -0.022786319 4.6228472e-39 340 258
0.026584039 0.722 -0.022786319 4.6228472e-39 341 258
0.02788852 0.72299999 -0.02281788 4.8065182e-39 342 258
0.029156178 0.72299999 -0.02281788 4.7139638e-39 343 258
0.030423839 0.72299999 -0.02281788 4.7139694e-39 344 258
0.031691495 0.72299999 -0.02281788 4.7139694e-39 345 258
0.032959159 0.72299999 -0.02281788 4.7139694e-39 346 258
0.03422682 0.72299999 -0.02281788 4.7139694e-39 347 258
0.035494477 0.72299999 -0.02281788 4.7139666e-39 348 258
0.036762137 0.72299999 -0.02281788 4.7139666e-39 349 258
0.038029801 0.72299999 -0.02281788 4.62285e-39 350 258
0.039297458 0.72299999 -0.02281788 4.5306544e-39 351 258
0.040565118 0.72299999 -0.02281788 4.7139666e-39 352 258
0.041832779 0.72299999 -0.02281788 4.7139666e-39 353 258
0.043100435 0.72299999 -0.02281788 4.4391776e-39 354 258
0.044368099 0.72299999 -0.02281788 4.5313732e-39 355 258
0.04563576 0.72299999 -0.02281788 4.62285e-39 356 258
0.046903417 0.72299999 -0.02281788 4.62285e-39 357 258
0.048171077 0.72299999 -0.02281788 4.6235703e-39 358 258
0.049438741 0.72299999 -0.02281788 4.6235703e-39 359 258
0.050706398 0.72299999 -0.02281788 4.5324508e-39 360 258
0.051974058 0.72299999 -0.02281788 4.5324508e-39 361 258
0.053241719 0.72299999 -0.02281788 4.8083175e-39 362 258
0.054509375 0.72299999 -0.02281788 4.8083175e-39 363 258
0.055777039 0.72299999 -0.02281788 4.8994313e-39 364 258
0.057044696 0.72299999 -0.02281788 4.9916269e-39 365 258
0.058312356 0.72299999 -0.02281788 4.7168379e-39 366 258
0.059580017 0.72299999 -0.02281788 4.7168379e-39 367 258
0.061016005 0.72500002 -0.022880999 4.9916269e-39 368 258
0.062287167 0.72500002 -0.022880999 4.9916269e-39 369 258
0.063382991 0.72299999 -0.02281788 5.0831037e-39 370 258
0.064650662 0.72299999 -0.02281788 5.2674935e-39 371 258
0.065827139 0.722 -0.022786319 5.2667719e-39 372 258
0.066907197 0.72000003 -0.022723202 5.0823806e-39 373 258
0.068169601 0.72000003 -0.022723202 3.0594718e-39 374 258
0.069335558 0.71899998 -0.022691639 2.7825247e-39 375 258
0.070596211 0.71899998 -0.022691639 7.9447065e-39 376 258
0.071856856 0.71899998 -0.022691639 1.3845227e-38 377 258
-0.10715496 0.71899998 -0.023952285 1.7881967e-38 235 259
-0.10589432 0.71899998 -0.023952285 1.4560445e-38 236 259
-0.10463367 0.71899998 -0.023952285 6.7238168e-39 237 259
-0.10337302 0.71899998 -0.023952285 2.0322863e-39 238 259
-0.10225441 0.72000003 -0.0239856 2.9546014e-39 239 259
-0.100992 0.72000003 -0.0239856 3.4130558e-39 240 259
-0.099729598 0.72000003 -0.0239856 3.3208602e-39 241 259
-0.098467201 0.72000003 -0.0239856 3.137192e-39 242 259
-0.097204804 0.72000003 -0.0239856 3.137192e-39 243 259
-0.095809139 0.71899998 -0.023952285 3.0457152e-39 244 259
-0.094548494 0.71899998 -0.023952285 3.0457152e-39 245 259
-0.093287848 0.71899998 -0.023952285 3.0457152e-39 246 259
-0.092027202 0.71899998 -0.023952285 2.9535196e-39 247 259
-0.090766557 0.71899998 -0.023952285 2.9535224e-39 248 259
-0.089505911 0.71899998 -0.023952285 3.045718e-39 249 259
-0.088367999 0.72000003 -0.0239856 2.6787684e-39 250 259
-0.087105595 0.72000003 -0.0239856 2.863161e-39 251 259
-0.085843205 0.72000003 -0.0239856 1.5800215e-39 252 259
-0.084580801 0.72000003 -0.0239856 1.4878258e-39 253 259
-0.083318397 0.72000003 -0.0239856 1.3045262e-39 254 259
-0.082056001 0.72000003 -0.0239856 1.3967232e-39 255 259
-0.080793604 0.72000003 -0.0239856 1.2137739e-39 256 259
-0.0795312 0.72000003 -0.0239856 1.3063283e-39 257 259
-0.078268804 0.72000003 -0.0239856 1.3981708e-39 258 259
-0.0770064 0.72000003 -0.0239856 1.6743989e-39 259 259
-0.075743996 0.72000003 -0.0239856 1.6747549e-39 260 259
-0.074481606 0.72000003 -0.0239856 1.9513417e-39 261 259
-0.073219202 0.72000003 -0.0239856 2.134654e-39 262 259
-0.071956798 0.72000003 -0.0239856 2.134654e-39 263 259
-0.070694394 0.72000003 -0.0239856 2.134654e-39 264 259
-0.069432005 0.72000003 -0.0239856 1.9506229e-39 265 259
-0.068169601 0.72000003 -0.0239856 1.9506257e-39 266 259
-0.066907197 0.72000003 -0.0239856 1.9506257e-39 267 259
-0.065644801 0.72000003 -0.0239856 1.6758367e-39 268 259
-0.064382397 0.72000003 -0.0239856 1.6758367e-39 269 259
-0.06312 0.72000003 -0.0239856 1.9506257e-39 270 259
-0.061857603 0.72000003 -0.0239856 1.9506257e-39 271 259
-0.060763516 0.722 -0.024052227 1.85843e-39 272 259
-0.059497613 0.722 -0.024052227 1.85843e-39 273 259
-0.058231708 0.722 -0.024052227 1.8580741e-39 274 259
-0.056965802 0.722 -0.024052227 1.8580741e-39 275 259
-0.055699892 0.722 -0.024052227 1.8587958e-39 276 259
-0.054509375 0.72299999 -0.024085538 1.9509914e-39 277 259
-0.053241719 0.72299999 -0.024085538 2.1353827e-39 278 259
-0.051974058 0.72299999 -0.024085538 2.4119696e-39 279 259
-0.050706398 0.72299999 -0.024085538 2.595642e-39 280 259
-0.049438741 0.72299999 -0.024085538 2.7796731e-39 281 259
-0.048171077 0.72299999 -0.024085538 2.4130486e-39 282 259
-0.046838548 0.722 -0.024052227 2.4130486e-39 283 259
-0.045572639 0.722 -0.024052227 2.3212159e-39 284 259
-0.044306733 0.722 -0.024052227 2.3212159e-39 285 259
-0.043040827 0.722 -0.024052227 2.4130486e-39 286 259
-0.041774917 0.722 -0.024052227 2.5970797e-39 287 259
-0.040509012 0.722 -0.024052227 2.5970797e-39 288 259
-0.039243106 0.722 -0.024052227 2.5970797e-39 289 259
-0.0379772 0.722 -0.024052227 2.5059631e-39 290 259
-0.03671129 0.722 -0.024052227 2.5059631e-39 291 259
-0.035445385 0.722 -0.024052227 2.5066833e-39 292 259
-0.034179479 0.722 -0.024052227 2.4144863e-39 293 259
-0.032913569 0.722 -0.024052227 2.7807521e-39 294 259
-0.031647664 0.722 -0.024052227 2.7807521e-39 295 259
-0.030381758 0.722 -0.024052227 2.9651405e-39 296 259
-0.029115854 0.722 -0.024052227 2.9651405e-39 297 259
-0.027849946 0.722 -0.024052227 2.9651363e-39 298 259
-0.026584039 0.722 -0.024052227 3.0573334e-39 299 259
-0.025318133 0.722 -0.024052227 2.6914277e-39 300 259
-0.024052227 0.722 -0.024052227 2.6914277e-39 301 259
-0.022786319 0.722 -0.024052227 3.2420834e-39 302 259
-0.021520413 0.722 -0.024052227 3.2420834e-39 303 259
-0.020282559 0.72299999 -0.024085538 2.9662195e-39 304 259
-0.019014901 0.72299999 -0.024085538 2.9662195e-39 305 259
-0.017747238 0.72299999 -0.024085538 3.0584152e-39 306 259
-0.01647958 0.72299999 -0.024085538 3.0584152e-39 307 259
-0.015211919 0.72299999 -0.024085538 3.4253984e-39 308 259
-0.01394426 0.72299999 -0.024085538 3.4253984e-39 309 259
-0.012676599 0.72299999 -0.024085538 3.5168752e-39 310 259
-0.01139316 0.722 -0.024052227 3.5168752e-39 311 259
-0.010127253 0.722 -0.024052227 3.607989e-39 312 259
-0.0088736191 0.72299999 -0.024085538 3.8849346e-39 313 259
-0.0075954394 0.722 -0.024052227 3.8849346e-39 314 259
-0.0063295332 0.722 -0.024052227 3.8849346e-39 315 259
-0.0050636264 0.722 -0.024052227 4.0682469e-39 316 259
-0.0037977197 0.722 -0.024052227 4.0682469e-39 317 259
-0.0025318132 0.722 -0.024052227 3.8849346e-39 318 259
-0.0012676599 0.72299999 -0.024085538 3.8849346e-39 319 259
0 0.722 -0.024052227 4.2519193e-39 320 259
0.0012659066 0.722 -0.024052227 4.2519193e-39 321 259
0.0025318132 0.722 -0.024052227 4.0693273e-39 322 259
0.0038029798 0.72299999 -0.024085538 4.0693273e-39 323 259
0.0050636264 0.722 -0.024052227 3.7945355e-39 324 259
0.0063295332 0.722 -0.024052227 3.7945355e-39 325 259
0.0075954394 0.722 -0.024052227 3.9778477e-39 326 259
0.0088613462 0.722 -0.024052227 3.9778477e-39 327 259
0.010127253 0.722 -0.024052227 3.8867311e-39 328 259
0.01139316 0.722 -0.024052227 3.7945355e-39 329 259
0.012659066 0.722 -0.024052227 3.7945383e-39 330 259
0.013924973 0.722 -0.024052227 3.8867339e-39 331 259
0.015190879 0.722 -0.024052227 3.6115862e-39 332 259
0.016456785 0.722 -0.024052227 3.6115862e-39 333 259
0.017722692 0.722 -0.024052227 3.8867339e-39 334 259
0.0189886 0.722 -0.024052227 4.1629607e-39 335 259
0.020254506 0.722 -0.024052227 4.1633166e-39 336 259
0.021520413 0.722 -0.024052227 4.0707622e-39 337 259
0.022786319 0.722 -0.024052227 4.0711182e-39 338 259
0.024052227 0.722 -0.024052227 4.1633138e-39 339 259
0.025318133 0.722 -0.024052227 3.9799987e-39 340 259
0.026584039 0.722 -0.024052227 3.9799987e-39 341 259
0.027849946 0.722 -0.024052227 4.2547906e-39 342 259
0.029115854 0.722 -0.024052227 4.2547906e-39 343 259
0.030381758 0.722 -0.024052227 4.1633166e-39 344 259
0.031647664 0.722 -0.024052227 4.1633166e-39 345 259
0.032913569 0.722 -0.024052227 4.5302984e-39 346 259
0.03422682 0.72299999 -0.024085538 4.4381028e-39 347 259
0.035494477 0.72299999 -0.024085538 4.7139666e-39 348 259
0.036762137 0.72299999 -0.024085538 4.7139666e-39 349 259
0.038029801 0.72299999 -0.024085538 4.7139666e-39 350 259
0.039297458 0.72299999 -0.024085538 4.8061623e-39 351 259
0.040565118 0.72299999 -0.024085538 4.5306544e-39 352 259
0.041832779 0.72299999 -0.024085538 4.5306544e-39 353 259
0.043100435 0.72299999 -0.024085538 4.5306544e-39 354 259
0.044368099 0.72299999 -0.024085538 4.62285e-39 355 259
0.04563576 0.72299999 -0.024085538 4.62285e-39 356 259
0.046903417 0.72299999 -0.024085538 4.62285e-39 357 259
0.048171077 0.72299999 -0.024085538 4.8061623e-39 358 259
0.049438741 0.72299999 -0.024085538 4.8061623e-39 359 259
0.050706398 0.72299999 -0.024085538 4.62285e-39 360 259
0.051974058 0.72299999 -0.024085538 4.715047e-39 361 259
0.053241719 0.72299999 -0.024085538 4.715047e-39 362 259
0.054509375 0.72299999 -0.024085538 4.715047e-39 363 259
0.055777039 0.72299999 -0.024085538 4.8994341e-39 364 259
0.056965802 0.722 -0.024052227 4.8994341e-39 365 259
0.058231708 0.722 -0.024052227 4.7168379e-39 366 259
0.059497613 0.722 -0.024052227 4.7168379e-39 367 259
0.060847677 0.72299999 -0.024085538 4.9919828e-39 368 259
0.062115334 0.72299999 -0.024085538 4.9919828e-39 369 259
0.063382991 0.72299999 -0.024085538 4.8994313e-39 370 259
0.064650662 0.72299999 -0.024085538 4.8994313e-39 371 259
0.065827139 0.722 -0.024052227 5.0823806e-39 372 259
0.066907197 0.72000003 -0.0239856 5.1745762e-39 373 259
0.068074919 0.71899998 -0.023952285 4.5313704e-39 374 259
0.069335558 0.71899998 -0.023952285 2.8722092e-39 375 259
0.070596211 0.71899998 -0.023952285 2.6052885e-39 376 259
0.071856856 0.71899998 -0.023952285 1.0441917e-38 377 259
-0.10841561 0.71899998 -0.025212931 1.9908833e-38 234 260
-0.10715496 0.71899998 -0.025212931 2.101482e-38 235 260
-0.10589432 0.71899998 -0.025212931 1.5939417e-38 236 260
-0.10463367 0.71899998 -0.025212931 6.443267e-39 237 260
-0.10337302 0.71899998 -0.025212931 1.6627836e-39 238 260
-0.10225441 0.72000003 -0.025248 2.5847399e-39 239 260
-0.100992 0.72000003 -0.025248 3.5956492e-39 240 260
-0.099729598 0.72000003 -0.025248 3.4112579e-39 241 260
-0.098467201 0.72000003 -0.025248 3.1364689e-39 242 260
-0.097204804 0.72000003 -0.025248 3.2286645e-39 243 260
-0.095809139 0.71899998 -0.025212931 3.0449963e-39 244 260
-0.094548494 0.71899998 -0.025212931 3.0449963e-39 245 260
-0.093287848 0.71899998 -0.025212931 2.9528007e-39 246 260
-0.092027202 0.71899998 -0.025212931 2.8606037e-39 247 260
-0.090766557 0.71899998 -0.025212931 3.1357598e-39 248 260
-0.089505911 0.71899998 -0.025212931 3.2283142e-39 249 260
-0.088367999 0.72000003 -0.025248 2.4029046e-39 250 260
-0.087105595 0.72000003 -0.025248 2.587656e-39 251 260
-0.085843205 0.72000003 -0.025248 1.5818235e-39 252 260
-0.084580801 0.72000003 -0.025248 1.3970735e-39 253 260
-0.083318397 0.72000003 -0.025248 9.3863175e-40 254 260
-0.082056001 0.72000003 -0.025248 1.0308274e-39 255 260
-0.080793604 0.72000003 -0.025248 1.1223069e-39 256 260
-0.0795312 0.72000003 -0.025248 1.3063381e-39 257 260
-0.078268804 0.72000003 -0.025248 1.4903664e-39 258 260
-0.0770064 0.72000003 -0.025248 1.7669533e-39 259 260
-0.075743996 0.72000003 -0.025248 1.8591461e-39 260 260
-0.074481606 0.72000003 -0.025248 1.9513417e-39 261 260
-0.073219202 0.72000003 -0.025248 1.9520606e-39 262 260
-0.071956798 0.72000003 -0.025248 1.9520606e-39 263 260
-0.070694394 0.72000003 -0.025248 2.0435374e-39 264 260
-0.069432005 0.72000003 -0.025248 1.8591461e-39 265 260
-0.068169601 0.72000003 -0.025248 2.0417395e-39 266 260
-0.066907197 0.72000003 -0.025248 2.0417395e-39 267 260
-0.065644801 0.72000003 -0.025248 1.85843e-39 268 260
-0.064382397 0.72000003 -0.025248 1.7662344e-39 269 260
-0.06312 0.72000003 -0.025248 2.0417423e-39 270 260
-0.062029421 0.722 -0.025318133 2.0417423e-39 271 260
-0.060763516 0.722 -0.025318133 1.8584272e-39 272 260
-0.059497613 0.722 -0.025318133 1.8584272e-39 273 260
-0.058231708 0.722 -0.025318133 1.7662344e-39 274 260
-0.056965802 0.722 -0.025318133 1.85843e-39 275 260
-0.055699892 0.722 -0.025318133 2.0417451e-39 276 260
-0.054509375 0.72299999 -0.025353199 2.2261364e-39 277 260
-0.053241719 0.72299999 -0.025353199 2.3190509e-39 278 260
-0.051974058 0.72299999 -0.025353199 2.3190509e-39 279 260
-0.050706398 0.72299999 -0.025353199 2.6867558e-39 280 260
-0.049438741 0.72299999 -0.025353199 2.5945602e-39 281 260
-0.048104454 0.722 -0.025318133 2.5034435e-39 282 260
-0.046838548 0.722 -0.025318133 2.5034435e-39 283 260
-0.045572639 0.722 -0.025318133 2.0453422e-39 284 260
-0.044306733 0.722 -0.025318133 2.2293734e-39 285 260
-0.043040827 0.722 -0.025318133 2.2286545e-39 286 260
-0.041774917 0.722 -0.025318133 2.3208501e-39 287 260
-0.040509012 0.722 -0.025318133 2.3208501e-39 288 260
-0.039243106 0.722 -0.025318133 2.4130458e-39 289 260
-0.0379772 0.722 -0.025318133 2.4130458e-39 290 260
-0.03671129 0.722 -0.025318133 2.4130458e-39 291 260
-0.035445385 0.722 -0.025318133 2.4130458e-39 292 260
-0.034179479 0.722 -0.025318133 2.3208501e-39 293 260
-0.032913569 0.722 -0.025318133 2.780029e-39 294 260
-0.031647664 0.722 -0.025318133 2.780029e-39 295 260
-0.030381758 0.722 -0.025318133 2.7800262e-39 296 260
-0.029115854 0.722 -0.025318133 2.8722218e-39 297 260
-0.027849946 0.722 -0.025318133 2.5063134e-39 298 260
-0.026584039 0.722 -0.025318133 2.5063134e-39 299 260
-0.025318133 0.722 -0.025318133 2.598509e-39 300 260
-0.024052227 0.722 -0.025318133 2.6910648e-39 301 260
-0.022786319 0.722 -0.025318133 2.7818241e-39 302 260
-0.021520413 0.722 -0.025318133 2.7818241e-39 303 260
-0.020282559 0.72299999 -0.025353199 3.0569718e-39 304 260
-0.019014901 0.72299999 -0.025353199 3.1491689e-39 305 260
-0.017722692 0.722 -0.025318133 3.1491661e-39 306 260
-0.016456785 0.722 -0.025318133 3.1491661e-39 307 260
-0.015190879 0.722 -0.025318133 3.4246768e-39 308 260
-0.013924973 0.722 -0.025318133 3.3324811e-39 309 260
-0.012659066 0.722 -0.025318133 3.4246768e-39 310 260
-0.01139316 0.722 -0.025318133 3.4246768e-39 311 260
-0.010127253 0.722 -0.025318133 3.5168724e-39 312 260
-0.0088613462 0.722 -0.025318133 3.7934579e-39 313 260
-0.0075954394 0.722 -0.025318133 3.5172283e-39 314 260
-0.0063295332 0.722 -0.025318133 3.6094239e-39 315 260
-0.0050636264 0.722 -0.025318133 3.9753296e-39 316 260
-0.0037977197 0.722 -0.025318133 4.0675252e-39 317 260
-0.0025318132 0.722 -0.025318133 3.7927362e-39 318 260
-0.0012659066 0.722 -0.025318133 3.7927362e-39 319 260
0 0.722 -0.025318133 4.0682441e-39 320 260
0.0012659066 0.722 -0.025318133 4.0682441e-39 321 260
0.0025318132 0.722 -0.025318133 3.7934579e-39 322 260
0.0037977197 0.722 -0.025318133 3.7934579e-39 323 260
0.0050636264 0.722 -0.025318133 3.609068e-39 324 260
0.0063295332 0.722 -0.025318133 3.7934579e-39 325 260
0.0075954394 0.722 -0.025318133 3.6101428e-39 326 260
0.0088613462 0.722 -0.025318133 3.7023384e-39 327 260
0.010127253 0.722 -0.025318133 3.609068e-39 328 260
0.01139316 0.722 -0.025318133 3.7934579e-39 329 260
0.012659066 0.722 -0.025318133 4.0682497e-39 330 260
0.013924973 0.722 -0.025318133 3.9756953e-39 331 260
0.015190879 0.722 -0.025318133 3.7923831e-39 332 260
0.016456785 0.722 -0.025318133 3.7923831e-39 333 260
0.017722692 0.722 -0.025318133 3.9771303e-39 334 260
0.0189886 0.722 -0.025318133 3.9771303e-39 335 260
0.020254506 0.722 -0.025318133 4.0693245e-39 336 260
0.021520413 0.722 -0.025318133 4.0693245e-39 337 260
0.022786319 0.722 -0.025318133 3.9771275e-39 338 260
0.024052227 0.722 -0.025318133 4.0693245e-39 339 260
0.025248 0.72000003 -0.025248 4.2537116e-39 340 260
0.026510401 0.72000003 -0.025248 4.2537116e-39 341 260
0.027772799 0.72000003 -0.025248 4.0703993e-39 342 260
0.029115854 0.722 -0.025318133 4.0703993e-39 343 260
0.030381758 0.722 -0.025318133 4.1625977e-39 344 260
0.031647664 0.722 -0.025318133 4.2547934e-39 345 260
0.032913569 0.722 -0.025318133 4.2547906e-39 346 260
0.034179479 0.722 -0.025318133 4.2547906e-39 347 260
0.035445385 0.722 -0.025318133 4.621771e-39 348 260
0.03671129 0.722 -0.025318133 4.7139666e-39 349 260
0.0379772 0.722 -0.025318133 4.7139638e-39 350 260
0.039243106 0.722 -0.025318133 4.7139638e-39 351 260
0.040509012 0.722 -0.025318133 4.5317264e-39 352 260
0.041774917 0.722 -0.025318133 4.5317264e-39 353 260
0.043040827 0.722 -0.025318133 4.6239234e-39 354 260
0.044306733 0.722 -0.025318133 4.5317264e-39 355 260
0.045572639 0.722 -0.025318133 4.7154002e-39 356 260
0.046838548 0.722 -0.025318133 4.6232031e-39 357 260
0.048104454 0.722 -0.025318133 4.8057993e-39 358 260
0.04937036 0.722 -0.025318133 4.897995e-39 359 260
0.050636265 0.722 -0.025318133 4.8065182e-39 360 260
0.051902171 0.722 -0.025318133 4.8987152e-39 361 260
0.053168077 0.722 -0.025318133 4.715403e-39 362 260
0.054433983 0.722 -0.025318133 4.8994341e-39 363 260
0.055699892 0.722 -0.025318133 4.715403e-39 364 260
0.056965802 0.722 -0.025318133 4.8994341e-39 365 260
0.058231708 0.722 -0.025318133 4.9909109e-39 366 260
0.059497613 0.722 -0.025318133 4.9909109e-39 367 260
0.060763516 0.722 -0.025318133 4.9909109e-39 368 260
0.062029421 0.722 -0.025318133 4.9909109e-39 369 260
0.063382991 0.72299999 -0.025353199 4.9909109e-39 370 260
0.064650662 0.72299999 -0.025353199 4.8987152e-39 371 260
0.065644801 0.72000003 -0.025248 5.1735042e-39 372 260
0.066907197 0.72000003 -0.025248 5.0813072e-39 373 260
0.068074919 0.71899998 -0.025212931 4.2551409e-39 374 260
0.069335558 0.71899998 -0.025212931 2.226837e-39 375 260
0.070596211 0.71899998 -0.025212931 2.1285724e-41 376 260
0.071856856 0.71899998 -0.025212931 6.6654919e-39 377 260
-0.10841561 0.71899998 -0.02647358 2.082863e-38 234 261
-0.10715496 0.71899998 -0.02647358 2.1289968e-38 235 261
-0.10589432 0.71899998 -0.02647358 1.4285288e-38 236 261
-0.10463367 0.71899998 -0.02647358 4.1434083e-39 237 261
-0.10337302 0.71899998 -0.02647358 1.2025243e-39 238 261
-0.10225441 0.72000003 -0.026510401 2.5854587e-39 239 261
-0.100992 0.72000003 -0.026510401 2.8606009e-39 240 261
-0.099729598 0.72000003 -0.026510401 2.8606009e-39 241 261
-0.098467201 0.72000003 -0.026510401 2.8595289e-39 242 261
-0.097204804 0.72000003 -0.026510401 2.8595289e-39 243 261
-0.095809139 0.71899998 -0.02647358 2.8595289e-39 244 261
-0.094548494 0.71899998 -0.02647358 2.8595289e-39 245 261
-0.0934176 0.72000003 -0.026510401 3.0431999e-39 246 261
-0.092155196 0.72000003 -0.026510401 2.9506455e-39 247 261
-0.090766557 0.71899998 -0.02647358 2.9513742e-39 248 261
-0.089505911 0.71899998 -0.02647358 3.1357654e-39 249 261
-0.088367999 0.72000003 -0.026510401 2.218163e-39 250 261
-0.087105595 0.72000003 -0.026510401 2.5869469e-39 251 261
-0.085843205 0.72000003 -0.026510401 1.4892748e-39 252 261
-0.084580801 0.72000003 -0.026510401 1.4892748e-39 253 261
-0.083318397 0.72000003 -0.026510401 6.6312666e-40 254 261
-0.082056001 0.72000003 -0.026510401 5.705723e-40 255 261
-0.080793604 0.72000003 -0.026510401 4.7945847e-40 256 261
-0.0795312 0.72000003 -0.026510401 7.5568523e-40 257 261
-0.078268804 0.72000003 -0.026510401 7.5568523e-40 258 261
-0.0770064 0.72000003 -0.026510401 8.4823959e-40 259 261
-0.075743996 0.72000003 -0.026510401 1.1237475e-39 260 261
-0.074481606 0.72000003 -0.026510401 1.2159445e-39 261 261
-0.073219202 0.72000003 -0.026510401 1.2159417e-39 262 261
-0.071956798 0.72000003 -0.026510401 1.2159417e-39 263 261
-0.070694394 0.72000003 -0.026510401 1.4910895e-39 264 261
-0.069432005 0.72000003 -0.026510401 1.3988924e-39 265 261
-0.068169601 0.72000003 -0.026510401 1.4903692e-39 266 261
-0.066907197 0.72000003 -0.026510401 1.4903692e-39 267 261
-0.065644801 0.72000003 -0.026510401 1.3063381e-39 268 261
-0.064382397 0.72000003 -0.026510401 1.3063381e-39 269 261
-0.06312 0.72000003 -0.026510401 1.3988924e-39 270 261
-0.062029421 0.722 -0.026584039 1.3988924e-39 271 261
-0.060763516 0.722 -0.026584039 1.2155774e-39 272 261
-0.059497613 0.722 -0.026584039 1.3077744e-39 273 261
-0.058231708 0.722 -0.026584039 1.4903692e-39 274 261
-0.056965802 0.722 -0.026584039 1.4903692e-39 275 261
-0.055699892 0.722 -0.026584039 1.6744045e-39 276 261
-0.054433983 0.722 -0.026584039 1.7666002e-39 277 261
-0.053241719 0.72299999 -0.026620859 1.5836508e-39 278 261
-0.051974058 0.72299999 -0.026620859 1.6758465e-39 279 261
-0.050706398 0.72299999 -0.026620859 2.0431899e-39 280 261
-0.049438741 0.72299999 -0.026620859 2.0431899e-39 281 261
-0.048104454 0.722 -0.026584039 1.9517131e-39 282 261
-0.046838548 0.722 -0.026584039 2.0439087e-39 283 261
-0.045572639 0.722 -0.026584039 1.7691169e-39 284 261
-0.044306733 0.722 -0.026584039 1.7691169e-39 285 261
-0.043040827 0.722 -0.026584039 1.7691169e-39 286 261
-0.041774917 0.722 -0.026584039 1.7691169e-39 287 261
-0.040396802 0.72000003 -0.026510401 1.768761e-39 288 261
-0.039134402 0.72000003 -0.026510401 1.8613167e-39 289 261
-0.037871998 0.72000003 -0.026510401 1.8609608e-39 290 261
-0.03671129 0.722 -0.026584039 1.7687638e-39 291 261
-0.035445385 0.722 -0.026584039 1.8609608e-39 292 261
-0.034179479 0.722 -0.026584039 1.8609608e-39 293 261
-0.032913569 0.722 -0.026584039 1.8613167e-39 294 261
-0.031647664 0.722 -0.026584039 1.8613167e-39 295 261
-0.030381758 0.722 -0.026584039 1.9527907e-39 296 261
-0.029115854 0.722 -0.026584039 2.2293762e-39 297 261
-0.027849946 0.722 -0.026584039 1.5876011e-39 298 261
-0.026584039 0.722 -0.026584039 1.5876011e-39 299 261
-0.025248 0.72000003 -0.026510401 1.7709162e-39 300 261
-0.0239856 0.72000003 -0.026510401 1.7709162e-39 301 261
-0.022723202 0.72000003 -0.026510401 1.8623957e-39 302 261
-0.021460801 0.72000003 -0.026510401 1.8623957e-39 303 261
-0.020254506 0.722 -0.026584039 2.045708e-39 304 261
-0.0189886 0.722 -0.026584039 2.045708e-39 305 261
-0.017722692 0.722 -0.026584039 2.046424e-39 306 261
-0.016456785 0.722 -0.026584039 2.046424e-39 307 261
-0.015190879 0.722 -0.026584039 2.9640671e-39 308 261
-0.013924973 0.722 -0.026584039 2.8718715e-39 309 261
-0.012659066 0.722 -0.026584039 2.7807549e-39 310 261
-0.01139316 0.722 -0.026584039 2.7807549e-39 311 261
-0.010127253 0.722 -0.026584039 2.5059631e-39 312 261
-0.0088613462 0.722 -0.026584039 2.5981601e-39 313 261
-0.0075954394 0.722 -0.026584039 2.781108e-39 314 261
-0.0063295332 0.722 -0.026584039 2.9651405e-39 315 261
-0.0050636264 0.722 -0.026584039 2.9651405e-39 316 261
-0.0037977197 0.722 -0.026584039 3.0573362e-39 317 261
-0.0025318132 0.722 -0.026584039 2.8747428e-39 318 261
-0.0012659066 0.722 -0.026584039 2.6907117e-39 319 261
0 0.722 -0.026584039 3.1495318e-39 320 261
0.0012659066 0.722 -0.026584039 3.0573362e-39 321 261
0.0025318132 0.722 -0.026584039 3.1495318e-39 322 261
0.0037977197 0.722 -0.026584039 3.1495318e-39 323 261
0.0050636264 0.722 -0.026584039 3.0584152e-39 324 261
0.0063295332 0.722 -0.026584039 3.0584152e-39 325 261
0.0075954394 0.722 -0.026584039 2.9669356e-39 326 261
0.0088613462 0.722 -0.026584039 2.9669356e-39 327 261
0.010127253 0.722 -0.026584039 3.2428022e-39 328 261
0.01139316 0.722 -0.026584039 3.0587711e-39 329 261
0.012624 0.72000003 -0.026510401 3.5168752e-39 330 261
0.0138864 0.72000003 -0.026510401 3.5168752e-39 331 261
0.0151488 0.72000003 -0.026510401 3.2417302e-39 332 261
0.016456785 0.722 -0.026584039 3.1495346e-39 333 261
0.017722692 0.722 -0.026584039 3.2417274e-39 334 261
0.0189886 0.722 -0.026584039 3.3342818e-39 335 261
0.020198401 0.72000003 -0.026510401 3.5168752e-39 336 261
0.021460801 0.72000003 -0.026510401 3.6090708e-39 337 261
0.022723202 0.72000003 -0.026510401 3.3342818e-39 338 261
0.0239856 0.72000003 -0.026510401 3.3342818e-39 339 261
0.025248 0.72000003 -0.026510401 3.5175941e-39 340 261
0.026510401 0.72000003 -0.026510401 3.5175941e-39 341 261
0.027772799 0.72000003 -0.026510401 3.1513297e-39 342 261
0.029035201 0.72000003 -0.026510401 3.1513297e-39 343 261
0.030381758 0.722 -0.026584039 3.0598557e-39 344 261
0.031647664 0.722 -0.026584039 3.0598557e-39 345 261
0.032913569 0.722 -0.026584039 3.4268418e-39 346 261
0.034179479 0.722 -0.026584039 3.3346447e-39 347 261
0.035445385 0.722 -0.026584039 3.5186731e-39 348 261
0.03671129 0.722 -0.026584039 3.5186731e-39 349 261
0.0379772 0.722 -0.026584039 3.5186703e-39 350 261
0.039243106 0.722 -0.026584039 3.7027028e-39 351 261
0.040509012 0.722 -0.026584039 3.3360755e-39 352 261
0.041774917 0.722 -0.026584039 3.5204653e-39 353 261
0.043040827 0.722 -0.026584039 3.7952515e-39 354 261
0.044306733 0.722 -0.026584039 3.8878059e-39 355 261
