# .PCD v.7 - Point Cloud Data file format
FIELDS x y z rgb imX imY
SIZE 4 4 4 4 4 4
TYPE F F F F F F
COUNT 1 1 1 1 1 1
WIDTH 847
HEIGHT 1
VIEWPOINT 0 0 0 1 0 0 0
POINTS 847
DATA ascii
0.018041799 0.68599999 0.03848917 1.3778231e-38 335 208
0.019244585 0.68599999 0.03848917 1.3687114e-38 336 208
0.020477179 0.68699998 0.038545277 1.3687114e-38 337 208
0.021681719 0.68699998 0.038545277 1.3504518e-38 338 208
0.022886258 0.68699998 0.038545277 1.3412322e-38 339 208
0.024090799 0.68699998 0.038545277 1.2861319e-38 340 208
0.025295338 0.68699998 0.038545277 8.7243721e-39 341 208
0.026538454 0.68800002 0.038601387 4.6072634e-39 342 208
0.027744746 0.68800002 0.038601387 1.3273654e-38 343 208
0.029582238 0.70300001 0.039442986 1.3002477e-38 344 208
0.030814834 0.70300001 0.039442986 1.1711739e-38 345 208
0.031956252 0.70099998 0.039330769 5.6019905e-39 346 208
0.03318534 0.70099998 0.039330769 4.224437e-39 347 208
0.034414422 0.70099998 0.039330769 1.139949e-38 348 208
0.035643511 0.70099998 0.039330769 1.1030349e-38 349 208
0.036872596 0.70099998 0.039330769 1.3231525e-38 350 208
0.038101684 0.70099998 0.039330769 1.8302285e-38 351 208
0.039442986 0.70300001 0.039442986 1.3825717e-38 352 208
-0.06561324 0.69300002 0.037666857 1.4565072e-38 266 209
-0.064398177 0.69300002 0.037666857 1.2813357e-38 267 209
-0.063000768 0.69099998 0.03755815 1.2604179e-38 268 209
-0.061431535 0.68699998 0.037340738 1.63842e-38 269 209
-0.060226995 0.68699998 0.037340738 1.5207978e-38 270 209
-0.059022456 0.68699998 0.037340738 1.5577121e-38 271 209
-0.056555521 0.67199999 0.036525436 1.5656321e-38 272 209
-0.055377278 0.67199999 0.036525436 1.2429474e-38 273 209
-0.054199036 0.67199999 0.036525436 1.3978056e-38 274 209
-0.053020798 0.67199999 0.036525436 1.3240491e-38 275 209
-0.051765412 0.671 0.036471087 1.5259106e-38 276 209
-0.050513536 0.67000002 0.036416732 1.5259106e-38 277 209
-0.049338799 0.67000002 0.036416732 1.553212e-38 278 209
-0.047876518 0.66600001 0.03619932 1.5993096e-38 279 209
-0.046568532 0.66399997 0.036090612 1.5994911e-38 280 209
-0.04526756 0.662 0.035981905 1.6179302e-38 281 209
-0.044040225 0.66100001 0.035927553 1.5815887e-38 282 209
-0.042751525 0.65899998 0.035818845 1.5723691e-38 283 209
-0.041596077 0.65899998 0.035818845 1.5908088e-38 284 209
-0.040379263 0.65799999 0.035764489 1.7844196e-38 285 209
-0.039165959 0.65700001 0.035710141 1.8684775e-38 286 209
-0.038014017 0.65700001 0.035710141 2.0620883e-38 287 209
-0.036862079 0.65700001 0.035710141 2.1720726e-38 288 209
-0.035710141 0.65700001 0.035710141 2.0798768e-38 289 209
-0.034558199 0.65700001 0.035710141 2.0153734e-38 290 209
-0.033406258 0.65700001 0.035710141 1.8862995e-38 291 209
-0.03225432 0.65700001 0.035710141 1.8667798e-38 292 209
-0.03110238 0.65700001 0.035710141 1.820682e-38 293 209
-0.02995044 0.65700001 0.035710141 1.7929517e-38 294 209
-0.028798498 0.65700001 0.035710141 1.682317e-38 295 209
-0.027688639 0.65799999 0.035764489 1.6727402e-38 296 209
-0.026534945 0.65799999 0.035764489 1.6450456e-38 297 209
-0.025419824 0.65899998 0.035818845 1.5715785e-38 298 209
-0.02433802 0.66100001 0.035927553 1.5623588e-38 299 209
-0.023179067 0.66100001 0.035927553 1.5255894e-38 300 209
-0.022053426 0.662 0.035981905 1.4610525e-38 301 209
-0.02086116 0.66100001 0.035927553 1.5249064e-38 302 209
-0.019702207 0.66100001 0.035927553 1.4972478e-38 303 209
-0.018543253 0.66100001 0.035927553 1.4881354e-38 304 209
-0.017436899 0.66299999 0.036036257 1.497355e-38 305 209
-0.016274439 0.66299999 0.036036257 1.4330701e-38 306 209
-0.015134773 0.66399997 0.036090612 1.3777527e-38 307 209
-0.013970559 0.66399997 0.036090612 1.4237433e-38 308 209
-0.01284492 0.66600001 0.03619932 1.4237433e-38 309 209
-0.011677199 0.66600001 0.03619932 1.4145238e-38 310 209
-0.01050948 0.66600001 0.03619932 1.4053041e-38 311 209
-0.0093698129 0.66799998 0.036308024 1.4053038e-38 312 209
-0.0082231332 0.67000002 0.036416732 1.4053038e-38 313 209
-0.0070483997 0.67000002 0.036416732 1.3869723e-38 314 209
-0.0058824331 0.671 0.036471087 1.3869723e-38 315 209
-0.0047059464 0.671 0.036471087 1.4053388e-38 316 209
-0.0035294599 0.671 0.036471087 1.4053388e-38 317 209
-0.0023564799 0.67199999 0.036525436 1.3870426e-38 318 209
-0.0011817467 0.67400002 0.036634147 1.3870426e-38 319 209
0 0.67400002 0.036634147 1.3503086e-38 320 209
0.0011834999 0.67500001 0.036688499 1.3503086e-38 321 209
0.0023705065 0.676 0.036742851 1.3685685e-38 322 209
0.0035662798 0.67799997 0.036851559 1.3685685e-38 323 209
0.0047550397 0.67799997 0.036851559 1.3960474e-38 324 209
0.0059525664 0.67900002 0.036905911 1.3960474e-38 325 209
0.0071535995 0.68000001 0.036960267 1.3685685e-38 326 209
0.0083458666 0.68000001 0.036960267 1.3685685e-38 327 209
0.0095381327 0.68000001 0.036960267 1.3410174e-38 328 209
0.010761959 0.68199998 0.037068974 1.350237e-38 329 209
0.011957732 0.68199998 0.037068974 1.3410171e-38 330 209
0.013172794 0.68300003 0.037123326 1.3502367e-38 331 209
0.01439136 0.68400002 0.037177678 1.3870429e-38 332 209
0.01559064 0.68400002 0.037177678 1.3778234e-38 333 209
0.016839013 0.68599999 0.037286382 1.3870429e-38 334 209
0.018041799 0.68599999 0.037286382 1.3870429e-38 335 209
0.019272638 0.68699998 0.037340738 1.3686758e-38 336 209
0.020477179 0.68699998 0.037340738 1.3686758e-38 337 209
0.021713281 0.68800002 0.037395094 1.3504518e-38 338 209
0.022919573 0.68800002 0.037395094 1.3412322e-38 339 209
0.024125867 0.68800002 0.037395094 1.2218468e-38 340 209
0.025295338 0.68699998 0.037340738 8.0815237e-39 341 209
0.026499879 0.68699998 0.037340738 4.8842202e-39 342 209
0.027704418 0.68699998 0.037340738 1.3827196e-38 343 209
0.029582238 0.70300001 0.038210396 1.3185795e-38 344 209
0.030814834 0.70300001 0.038210396 1.2447872e-38 345 209
0.032047424 0.70300001 0.038210396 5.513022e-39 346 209
0.033280019 0.70300001 0.038210396 4.5917846e-39 347 209
0.034414422 0.70099998 0.038101684 1.2226727e-38 348 209
0.035643511 0.70099998 0.038101684 1.1857945e-38 349 209
0.036872596 0.70099998 0.038101684 1.3416638e-38 350 209
0.038101684 0.70099998 0.038101684 1.7934224e-38 351 209
0.039442986 0.70300001 0.038210396 1.3273983e-38 352 209
-0.06561324 0.69300002 0.036451802 1.4565802e-38 266 210
-0.064398177 0.69300002 0.036451802 1.2998117e-38 267 210
-0.063000768 0.69099998 0.036346599 1.2235754e-38 268 210
-0.061789215 0.69099998 0.036346599 1.5093459e-38 269 210
-0.060314666 0.68800002 0.0361888 1.3550979e-38 270 210
-0.059108373 0.68800002 0.0361888 1.604026e-38 271 210
-0.056387197 0.67000002 0.035241999 1.7789106e-38 272 210
-0.055212468 0.67000002 0.035241999 1.4931401e-38 273 210
-0.054118387 0.671 0.0352946 1.5009134e-38 274 210
-0.053020798 0.67199999 0.035347197 1.0952526e-38 275 210
-0.051765412 0.671 0.0352946 1.4430377e-38 276 210
-0.050513536 0.67000002 0.035241999 1.5167942e-38 277 210
-0.049338799 0.67000002 0.035241999 1.5441344e-38 278 210
-0.047948405 0.667 0.035084199 1.5533898e-38 279 210
-0.046568532 0.66399997 0.0349264 1.5624687e-38 280 210
-0.04526756 0.662 0.034821201 1.6085306e-38 281 210
-0.044040225 0.66100001 0.0347686 1.5904864e-38 282 210
-0.042751525 0.65899998 0.034663398 1.6734626e-38 283 210
-0.04153296 0.65799999 0.034610797 1.6555625e-38 284 210
-0.0403179 0.65700001 0.034558199 1.5264886e-38 285 210
-0.039046731 0.65499997 0.034452997 1.5084108e-38 286 210
-0.037898298 0.65499997 0.034452997 1.8956323e-38 287 210
-0.036862079 0.65700001 0.034558199 1.8772264e-38 288 210
-0.035710141 0.65700001 0.034558199 1.6375177e-38 289 210
-0.034452997 0.65499997 0.034452997 1.6459795e-38 290 210
-0.033304565 0.65499997 0.034452997 1.4892469e-38 291 210
-0.032156132 0.65499997 0.034452997 1.488097e-38 292 210
-0.03110238 0.65700001 0.034558199 1.5987316e-38 293 210
-0.02995044 0.65700001 0.034558199 1.6452976e-38 294 210
-0.028798498 0.65700001 0.034558199 1.6268945e-38 295 210
-0.027646558 0.65700001 0.034558199 1.6266441e-38 296 210
-0.026494619 0.65700001 0.034558199 1.5805463e-38 297 210
-0.025381252 0.65799999 0.034610797 1.534521e-38 298 210
-0.024264378 0.65899998 0.034663398 1.4699841e-38 299 210
-0.023179067 0.66100001 0.0347686 1.4420395e-38 300 210
-0.022020113 0.66100001 0.0347686 1.3775385e-38 301 210
-0.02086116 0.66100001 0.0347686 1.3775387e-38 302 210
-0.019702207 0.66100001 0.0347686 1.4326407e-38 303 210
-0.018543253 0.66100001 0.0347686 1.4144885e-38 304 210
-0.017436899 0.66299999 0.034873798 1.4144885e-38 305 210
-0.016274439 0.66299999 0.034873798 1.3779329e-38 306 210
-0.015134773 0.66399997 0.0349264 1.3687134e-38 307 210
-0.013970559 0.66399997 0.0349264 1.3870076e-38 308 210
-0.01284492 0.66600001 0.035031598 1.3870076e-38 309 210
-0.011677199 0.66600001 0.035031598 1.4051953e-38 310 210
-0.010525259 0.667 0.035084199 1.4235984e-38 311 210
-0.0093698129 0.66799998 0.035136797 1.3868654e-38 312 210
-0.0082231332 0.67000002 0.035241999 1.3868654e-38 313 210
-0.0070589199 0.671 0.0352946 1.3686058e-38 314 210
-0.0058824331 0.671 0.0352946 1.3686058e-38 315 210
-0.0047059464 0.671 0.0352946 1.4053385e-38 316 210
-0.0035294599 0.671 0.0352946 1.4053385e-38 317 210
-0.0023564799 0.67199999 0.035347197 1.3870426e-38 318 210
-0.0011817467 0.67400002 0.035452399 1.3870426e-38 319 210
0 0.67500001 0.035505001 1.3503086e-38 320 210
0.0011834999 0.67500001 0.035505001 1.3503086e-38 321 210
0.0023705065 0.676 0.035557602 1.3685685e-38 322 210
0.0035662798 0.67799997 0.0356628 1.3685685e-38 323 210
0.0047550397 0.67799997 0.0356628 1.3960477e-38 324 210
0.0059525664 0.67900002 0.035715401 1.4052672e-38 325 210
0.0071535995 0.68000001 0.035767999 1.3685685e-38 326 210
0.0083458666 0.68000001 0.035767999 1.377788e-38 327 210
0.009566186 0.68199998 0.035873197 1.3503089e-38 328 210
0.010761959 0.68199998 0.035873197 1.3319057e-38 329 210
0.011957732 0.68199998 0.035873197 1.3503442e-38 330 210
0.013172794 0.68300003 0.035925802 1.3595637e-38 331 210
0.01439136 0.68400002 0.035978399 1.3870426e-38 332 210
0.015636226 0.68599999 0.036083598 1.3778231e-38 333 210
0.016839013 0.68599999 0.036083598 1.3869354e-38 334 210
0.018068098 0.68699998 0.036136195 1.3777159e-38 335 210
0.019272638 0.68699998 0.036136195 1.3870076e-38 336 210
0.020477179 0.68699998 0.036136195 1.3962273e-38 337 210
0.021713281 0.68800002 0.0361888 1.3504166e-38 338 210
0.022919573 0.68800002 0.0361888 1.3504166e-38 339 210
0.024125867 0.68800002 0.0361888 1.2308878e-38 340 210
0.025295338 0.68699998 0.036136195 8.2651947e-39 341 210
0.026499879 0.68699998 0.036136195 4.7923959e-39 342 210
0.027704418 0.68699998 0.036136195 1.3550982e-38 343 210
0.029498078 0.70099998 0.036872596 1.3000692e-38 344 210
0.030727165 0.70099998 0.036872596 1.1064584e-38 345 210
0.031956252 0.70099998 0.036872596 6.5253663e-39 346 210
0.033280019 0.70300001 0.036977798 6.2484207e-39 347 210
0.034414422 0.70099998 0.036872596 1.2777727e-38 348 210
0.035643511 0.70099998 0.036872596 1.2132358e-38 349 210
0.036872596 0.70099998 0.036872596 1.3415191e-38 350 210
0.038101684 0.70099998 0.036872596 1.8024972e-38 351 210
0.039442986 0.70300001 0.036977798 1.2996669e-38 352 210
-0.065707922 0.69400001 0.035287585 1.447325e-38 266 211
-0.064398177 0.69300002 0.035236739 1.2813728e-38 267 211
-0.063183114 0.69300002 0.035236739 1.1497836e-38 268 211
-0.061968062 0.69300002 0.035236739 1.6845183e-38 269 211
-0.060489997 0.69 0.035084199 1.7327766e-38 270 211
-0.059280202 0.69 0.035084199 1.640545e-38 271 211
-0.056387197 0.67000002 0.034067266 1.4300056e-38 272 211
-0.055212468 0.67000002 0.034067266 1.2916763e-38 273 211
-0.054118387 0.671 0.034118112 1.6033385e-38 274 211
-0.053020798 0.67199999 0.034168959 1.4281668e-38 275 211
-0.051765412 0.671 0.034118112 1.435547e-38 276 211
-0.050513536 0.67000002 0.034067266 1.2419362e-38 277 211
-0.049338799 0.67000002 0.034067266 1.4612285e-38 278 211
-0.048020288 0.66799998 0.033965573 1.5257654e-38 279 211
-0.046708796 0.66600001 0.03386388 1.553499e-38 280 211
-0.04526756 0.662 0.033660494 1.5442794e-38 281 211
-0.044040225 0.66100001 0.033609647 1.5717233e-38 282 211
-0.042686652 0.65799999 0.033457108 1.6086015e-38 283 211
-0.041469838 0.65700001 0.033406258 1.6365839e-38 284 211
-0.0403179 0.65700001 0.033406258 1.6089612e-38 285 211
-0.039046731 0.65499997 0.033304565 1.6642801e-38 286 211
-0.037898298 0.65499997 0.033304565 1.8947692e-38 287 211
-0.036749862 0.65499997 0.033304565 1.6559938e-38 288 211
-0.03560143 0.65499997 0.033304565 1.4347242e-38 289 211
-0.034452997 0.65499997 0.033304565 1.6087069e-38 290 211
-0.033304565 0.65499997 0.033304565 1.54417e-38 291 211
-0.032156132 0.65499997 0.033304565 1.4976068e-38 292 211
-0.03110238 0.65700001 0.033406258 1.5253015e-38 293 211
-0.02995044 0.65700001 0.033406258 1.4792758e-38 294 211
-0.028798498 0.65700001 0.033406258 1.4515813e-38 295 211
-0.027646558 0.65700001 0.033406258 1.4331054e-38 296 211
-0.026494619 0.65700001 0.033406258 1.4146664e-38 297 211
-0.025381252 0.65799999 0.033457108 1.4331054e-38 298 211
-0.024264378 0.65899998 0.033507951 1.4331054e-38 299 211
-0.023179067 0.66100001 0.033609647 1.4144518e-38 300 211
-0.022020113 0.66100001 0.033609647 1.4052322e-38 301 211
-0.02086116 0.66100001 0.033609647 1.3868651e-38 302 211
-0.019702207 0.66100001 0.033609647 1.4145238e-38 303 211
-0.018543253 0.66100001 0.033609647 1.4144868e-38 304 211
-0.017436899 0.66299999 0.033711337 1.4144868e-38 305 211
-0.016298985 0.66399997 0.033762183 1.3870793e-38 306 211
-0.015134773 0.66399997 0.033762183 1.3870793e-38 307 211
-0.014012639 0.66600001 0.03386388 1.3870793e-38 308 211
-0.01284492 0.66600001 0.03386388 1.3594565e-38 309 211
-0.011694733 0.667 0.033914726 1.3960477e-38 310 211
-0.010525259 0.667 0.033914726 1.4052672e-38 311 211
-0.0093698129 0.66799998 0.033965573 1.377753e-38 312 211
-0.0082354061 0.671 0.034118112 1.3869726e-38 313 211
-0.0070589199 0.671 0.034118112 1.377753e-38 314 211
-0.0058911997 0.67199999 0.034168959 1.377753e-38 315 211
-0.0047129598 0.67199999 0.034168959 1.4053388e-38 316 211
-0.00353472 0.67199999 0.034168959 1.3869357e-38 317 211
-0.0023564799 0.67199999 0.034168959 1.3686035e-38 318 211
-0.0011834999 0.67500001 0.034321502 1.3778231e-38 319 211
0 0.67500001 0.034321502 1.3503442e-38 320 211
0.0011834999 0.67500001 0.034321502 1.3503442e-38 321 211
0.0023705065 0.676 0.034372345 1.3777878e-38 322 211
0.0035662798 0.67799997 0.034474038 1.3777878e-38 323 211
0.0047550397 0.67799997 0.034474038 1.3777162e-38 324 211
0.0059525664 0.67900002 0.034524884 1.3869357e-38 325 211
0.0071535995 0.68000001 0.034575731 1.3685682e-38 326 211
0.0083458666 0.68000001 0.034575731 1.3777878e-38 327 211
0.0095381327 0.68000001 0.034575731 1.3503442e-38 328 211
0.010761959 0.68199998 0.034677424 1.3319052e-38 329 211
0.011975267 0.68300003 0.034728274 1.3595635e-38 330 211
0.013172794 0.68300003 0.034728274 1.368783e-38 331 211
0.01439136 0.68400002 0.03477912 1.3778228e-38 332 211
0.015636226 0.68599999 0.034880809 1.3686032e-38 333 211
0.01686356 0.68699998 0.034931656 1.386971e-38 334 211
0.018068098 0.68699998 0.034931656 1.386971e-38 335 211
0.019300694 0.68800002 0.03498251 1.3870073e-38 336 211
0.020506985 0.68800002 0.03498251 1.4054825e-38 337 211
0.021713281 0.68800002 0.03498251 1.36882e-38 338 211
0.022986198 0.69 0.035084199 1.36882e-38 339 211
0.024195999 0.69 0.035084199 1.2952083e-38 340 211
0.025442619 0.69099998 0.035135046 8.9998786e-39 341 211
0.02673132 0.69300002 0.035236739 2.7637333e-39 342 211
0.027986705 0.69400001 0.035287585 8.756808e-39 343 211
0.029371841 0.69800001 0.035490975 9.1173257e-39 344 211
0.030727165 0.70099998 0.035643511 7.5503587e-39 345 211
0.031956252 0.70099998 0.035643511 9.1003601e-39 346 211
0.033280019 0.70300001 0.035745207 9.5609795e-39 347 211
0.034512613 0.70300001 0.035745207 1.3143996e-38 348 211
0.035745207 0.70300001 0.035745207 1.2498627e-38 349 211
0.036872596 0.70099998 0.035643511 1.3415194e-38 350 211
0.038101684 0.70099998 0.035643511 1.8393399e-38 351 211
0.039442986 0.70300001 0.035745207 1.3731716e-38 352 211
-0.065707922 0.69400001 0.034070771 1.4748764e-38 266 212
-0.064398177 0.69300002 0.034021679 1.2812656e-38 267 212
-0.063183114 0.69300002 0.034021679 1.1403138e-38 268 212
-0.061699796 0.69 0.0338744 1.8041223e-38 269 212
-0.060489997 0.69 0.0338744 1.9083444e-38 270 212
-0.059366114 0.69099998 0.033923492 1.7239533e-38 271 212
-0.057144642 0.67900002 0.033334374 1.4574453e-38 272 212
-0.055706903 0.676 0.033187091 1.3929083e-38 273 212
-0.054521654 0.676 0.033187091 1.6684873e-38 274 212
-0.053020798 0.67199999 0.03299072 1.7145491e-38 275 212
-0.051765412 0.671 0.032941625 1.566783e-38 276 212
-0.050588924 0.671 0.032941625 1.1795613e-38 277 212
-0.049338799 0.67000002 0.032892533 1.370074e-38 278 212
-0.047948405 0.667 0.032745253 1.2502556e-38 279 212
-0.046778932 0.667 0.032745253 1.516509e-38 280 212
-0.04526756 0.662 0.032499783 1.5902655e-38 281 212
-0.044040225 0.66100001 0.032450691 1.553356e-38 282 212
-0.042686652 0.65799999 0.032303412 1.553356e-38 283 212
-0.041469838 0.65700001 0.03225432 1.5259147e-38 284 212
-0.040195163 0.65499997 0.032156132 1.5811962e-38 285 212
-0.039046731 0.65499997 0.032156132 1.6367303e-38 286 212
-0.037898298 0.65499997 0.032156132 1.7658042e-38 287 212
-0.036749862 0.65499997 0.032156132 1.5635842e-38 288 212
-0.03560143 0.65499997 0.032156132 1.3330592e-38 289 212
-0.034452997 0.65499997 0.032156132 1.5253728e-38 290 212
-0.033304565 0.65499997 0.032156132 1.5346282e-38 291 212
-0.032156132 0.65499997 0.032156132 1.4608359e-38 292 212
-0.03110238 0.65700001 0.03225432 1.4147739e-38 293 212
-0.02995044 0.65700001 0.03225432 1.4144885e-38 294 212
-0.028798498 0.65700001 0.03225432 1.4052688e-38 295 212
-0.027646558 0.65700001 0.03225432 1.3960869e-38 296 212
-0.026534945 0.65799999 0.032303412 1.4053065e-38 297 212
-0.025381252 0.65799999 0.032303412 1.3962288e-38 298 212
-0.024264378 0.65899998 0.032352503 1.3962288e-38 299 212
-0.023179067 0.66100001 0.032450691 1.3962276e-38 300 212
-0.022020113 0.66100001 0.032450691 1.3962276e-38 301 212
-0.02086116 0.66100001 0.032450691 1.3780027e-38 302 212
-0.019702207 0.66100001 0.032450691 1.3780027e-38 303 212
-0.018543253 0.66100001 0.032450691 1.3870779e-38 304 212
-0.017436899 0.66299999 0.032548878 1.3870779e-38 305 212
-0.016298985 0.66399997 0.03259797 1.3871147e-38 306 212
-0.015134773 0.66399997 0.03259797 1.3871147e-38 307 212
-0.014012639 0.66600001 0.032696161 1.3870429e-38 308 212
-0.01284492 0.66600001 0.032696161 1.3778234e-38 309 212
-0.011694733 0.667 0.032745253 1.3960471e-38 310 212
-0.01054104 0.66799998 0.032794341 1.4052667e-38 311 212
-0.0093978662 0.67000002 0.032892533 1.3777524e-38 312 212
-0.0082354061 0.671 0.032941625 1.3777524e-38 313 212
-0.0070694401 0.67199999 0.03299072 1.3686408e-38 314 212
-0.0058911997 0.67199999 0.03299072 1.3594212e-38 315 212
-0.0047129598 0.67199999 0.03299072 1.386971e-38 316 212
-0.00353472 0.67199999 0.03299072 1.3777515e-38 317 212
-0.0023634934 0.67400002 0.033088908 1.3777509e-38 318 212
-0.0011834999 0.67500001 0.033137999 1.3869705e-38 319 212
0 0.676 0.033187091 1.3503439e-38 320 212
0.0011852533 0.676 0.033187091 1.3503439e-38 321 212
0.0023775198 0.67799997 0.033285279 1.3685682e-38 322 212
0.0035662798 0.67799997 0.033285279 1.3777878e-38 323 212
0.0047620535 0.67900002 0.033334374 1.3777159e-38 324 212
0.0059525664 0.67900002 0.033334374 1.3869354e-38 325 212
0.0071535995 0.68000001 0.033383466 1.3593839e-38 326 212
0.0083458666 0.68000001 0.033383466 1.3686035e-38 327 212
0.0095381327 0.68000001 0.033383466 1.3319405e-38 328 212
0.01077774 0.68300003 0.033530746 1.3503436e-38 329 212
0.011975267 0.68300003 0.033530746 1.3413038e-38 330 212
0.01319208 0.68400002 0.033579841 1.3320843e-38 331 212
0.01443344 0.68599999 0.033678025 1.3687467e-38 332 212
0.015659019 0.68699998 0.033727121 1.3871498e-38 333 212
0.01686356 0.68699998 0.033727121 1.3870424e-38 334 212
0.0180944 0.68800002 0.033776212 1.3870424e-38 335 212
0.019300694 0.68800002 0.033776212 1.3871147e-38 336 212
0.020506985 0.68800002 0.033776212 1.4055538e-38 337 212
0.021776399 0.69 0.0338744 1.3780746e-38 338 212
0.022986198 0.69 0.0338744 1.3504518e-38 339 212
0.024195999 0.69 0.0338744 1.3320477e-38 340 212
0.025442619 0.69099998 0.033923492 1.0744753e-38 341 212
0.026769891 0.69400001 0.034070771 5.8774718e-39 342 212
0.027986705 0.69400001 0.034070771 6.7958267e-39 343 212
0.029371841 0.69800001 0.034267146 6.7039912e-39 344 212
0.030727165 0.70099998 0.034414422 6.9795005e-39 345 212
0.032047424 0.70300001 0.034512613 1.1121098e-38 346 212
0.033280019 0.70300001 0.034512613 1.1858663e-38 347 212
0.034512613 0.70300001 0.034512613 1.3234765e-38 348 212
0.035745207 0.70300001 0.034512613 1.2865983e-38 349 212
0.036977798 0.70300001 0.034512613 1.3416635e-38 350 212
0.038210396 0.70300001 0.034512613 1.8395199e-38 351 212
0.039442986 0.70300001 0.034512613 1.4010098e-38 352 212
-0.065707922 0.69400001 0.032853961 1.4749483e-38 266 213
-0.064398177 0.69300002 0.03280662 1.3182158e-38 267 213
-0.063183114 0.69300002 0.03280662 1.1954141e-38 268 213
-0.061699796 0.69 0.032664597 1.7209292e-38 269 213
-0.060489997 0.69 0.032664597 1.6785018e-38 270 213
-0.059280202 0.69 0.032664597 1.7337833e-38 271 213
-0.057144642 0.67900002 0.032143861 1.7428233e-38 272 213
-0.055871718 0.67799997 0.03209652 1.6782864e-38 273 213
-0.054521654 0.676 0.032001842 1.6410838e-38 274 213
-0.053020798 0.67199999 0.031812478 1.4382534e-38 275 213
-0.051842555 0.67199999 0.031812478 1.4574112e-38 276 213
-0.050588924 0.671 0.031765141 1.568046e-38 277 213
-0.049412437 0.671 0.031765141 1.6950672e-38 278 213
-0.047948405 0.667 0.03157578 1.363163e-38 279 213
-0.046708796 0.66600001 0.031528439 1.3601402e-38 280 213
-0.04526756 0.662 0.031339079 1.3969826e-38 281 213
-0.044040225 0.66100001 0.031291738 1.4891788e-38 282 213
-0.042686652 0.65799999 0.031149717 1.4799592e-38 283 213
-0.041469838 0.65700001 0.03110238 1.5257694e-38 284 213
-0.040195163 0.65499997 0.031007698 1.5165498e-38 285 213
-0.039046731 0.65499997 0.031007698 1.4801404e-38 286 213
-0.037898298 0.65499997 0.031007698 1.4986154e-38 287 213
-0.036749862 0.65499997 0.031007698 1.4521579e-38 288 213
-0.03560143 0.65499997 0.031007698 1.2585471e-38 289 213
-0.034452997 0.65499997 0.031007698 1.3776806e-38 290 213
-0.033304565 0.65499997 0.031007698 1.4329979e-38 291 213
-0.032156132 0.65499997 0.031007698 1.4146664e-38 292 213
-0.03110238 0.65700001 0.03110238 1.4146664e-38 293 213
-0.02995044 0.65700001 0.03110238 1.4237418e-38 294 213
-0.028798498 0.65700001 0.03110238 1.4237418e-38 295 213
-0.027646558 0.65700001 0.03110238 1.396227e-38 296 213
-0.026534945 0.65799999 0.031149717 1.414702e-38 297 213
-0.025419824 0.65899998 0.031197058 1.3962992e-38 298 213
-0.02433802 0.66100001 0.031291738 1.3870796e-38 299 213
-0.023179067 0.66100001 0.031291738 1.3779677e-38 300 213
-0.022020113 0.66100001 0.031291738 1.3779677e-38 301 213
-0.02086116 0.66100001 0.031291738 1.3780027e-38 302 213
-0.019702207 0.66100001 0.031291738 1.3780027e-38 303 213
-0.018571306 0.662 0.031339079 1.3870777e-38 304 213
-0.017436899 0.66299999 0.031386416 1.3870777e-38 305 213
-0.016298985 0.66399997 0.031433757 1.3871147e-38 306 213
-0.015134773 0.66399997 0.031433757 1.3963342e-38 307 213
-0.014012639 0.66600001 0.031528439 1.396227e-38 308 213
-0.012864206 0.667 0.03157578 1.3870073e-38 309 213
-0.011712266 0.66799998 0.031623118 1.3960477e-38 310 213
-0.01054104 0.66799998 0.031623118 1.3960477e-38 311 213
-0.0093978662 0.67000002 0.0317178 1.386936e-38 312 213
-0.0082354061 0.671 0.031765141 1.3776806e-38 313 213
-0.0070694401 0.67199999 0.031812478 1.3870429e-38 314 213
-0.0058911997 0.67199999 0.031812478 1.3778234e-38 315 213
-0.0047129598 0.67199999 0.031812478 1.3870426e-38 316 213
-0.00354524 0.67400002 0.03190716 1.3778231e-38 317 213
-0.0023634934 0.67400002 0.03190716 1.3778234e-38 318 213
-0.0011834999 0.67500001 0.031954501 1.3409452e-38 319 213
0 0.676 0.032001842 1.3593484e-38 320 213
0.0011905134 0.67900002 0.032143861 1.3685679e-38 321 213
0.0023810267 0.67900002 0.032143861 1.3777878e-38 322 213
0.0035715401 0.67900002 0.032143861 1.3685682e-38 323 213
0.0047690663 0.68000001 0.032191198 1.3777878e-38 324 213
0.0059613334 0.68000001 0.032191198 1.3777878e-38 325 213
0.0071535995 0.68000001 0.032191198 1.3502723e-38 326 213
0.0083458666 0.68000001 0.032191198 1.3687114e-38 327 213
0.009566186 0.68199998 0.032285877 1.3503436e-38 328 213
0.01077774 0.68300003 0.032333218 1.3503436e-38 329 213
0.011975267 0.68300003 0.032333218 1.3503792e-38 330 213
0.01319208 0.68400002 0.032380559 1.3688183e-38 331 213
0.01443344 0.68599999 0.032475237 1.3780027e-38 332 213
0.015659019 0.68699998 0.032522578 1.368783e-38 333 213
0.01686356 0.68699998 0.032522578 1.3870426e-38 334 213
0.0180944 0.68800002 0.032569919 1.3962623e-38 335 213
0.019300694 0.68800002 0.032569919 1.3780033e-38 336 213
0.020566599 0.69 0.032664597 1.3780033e-38 337 213
0.021776399 0.69 0.032664597 1.3597437e-38 338 213
0.022986198 0.69 0.032664597 1.3689632e-38 339 213
0.024231065 0.69099998 0.032711938 1.3596335e-38 340 213
0.025553079 0.69400001 0.032853961 1.3135717e-38 341 213
0.026847038 0.69599998 0.032948639 1.1481231e-38 342 213
0.028107686 0.69700003 0.03299598 1.1112454e-38 343 213
0.029455997 0.69999999 0.033137999 1.1301527e-38 344 213
0.030727165 0.70099998 0.03318534 1.2039093e-38 345 213
0.032047424 0.70300001 0.033280019 1.2868131e-38 346 213
0.033280019 0.70300001 0.033280019 1.2960326e-38 347 213
0.034512613 0.70300001 0.033280019 1.3234049e-38 348 213
0.035796054 0.704 0.03332736 1.2864906e-38 349 213
0.036977798 0.70300001 0.033280019 1.3692516e-38 350 213
0.038210396 0.70300001 0.033280019 1.8855471e-38 351 213
0.039442986 0.70300001 0.033280019 1.4194139e-38 352 213
-0.065707922 0.69400001 0.031637147 1.4840963e-38 266 214
-0.064398177 0.69300002 0.031591557 1.3826451e-38 267 214
-0.063000768 0.69099998 0.031500384 1.1681855e-38 268 214
-0.061789215 0.69099998 0.031500384 1.5738462e-38 269 214
-0.060489997 0.69 0.031454802 1.6873961e-38 270 214
-0.059022456 0.68699998 0.031318039 1.7704082e-38 271 214
-0.05739712 0.68199998 0.031090107 1.7246383e-38 272 214
-0.055871718 0.67799997 0.030907756 1.7246383e-38 273 214
-0.054521654 0.676 0.030816587 1.7795224e-38 274 214
-0.053257499 0.67500001 0.030771 1.5213746e-38 275 214
-0.051842555 0.67199999 0.030634239 1.3925879e-38 276 214
-0.050588924 0.671 0.030588651 1.6230409e-38 277 214
-0.049412437 0.671 0.030588651 1.705729e-38 278 214
-0.048020288 0.66799998 0.030451892 1.4936789e-38 279 214
-0.046708796 0.66600001 0.030360719 1.4912272e-38 280 214
-0.04526756 0.662 0.030178372 1.1224447e-38 281 214
-0.044040225 0.66100001 0.030132787 1.3880482e-38 282 214
-0.042751525 0.65899998 0.030041611 1.3973036e-38 283 214
-0.041469838 0.65700001 0.02995044 1.5074734e-38 284 214
-0.0403179 0.65700001 0.02995044 1.5535711e-38 285 214
-0.039046731 0.65499997 0.029859263 1.4712066e-38 286 214
-0.037898298 0.65499997 0.029859263 1.4435119e-38 287 214
-0.036749862 0.65499997 0.029859263 1.452121e-38 288 214
-0.03560143 0.65499997 0.029859263 1.369145e-38 289 214
-0.034452997 0.65499997 0.029859263 1.4147404e-38 290 214
-0.033304565 0.65499997 0.029859263 1.4147404e-38 291 214
-0.032156132 0.65499997 0.029859263 1.3963718e-38 292 214
-0.03110238 0.65700001 0.02995044 1.3963718e-38 293 214
-0.02995044 0.65700001 0.02995044 1.3872228e-38 294 214
-0.028798498 0.65700001 0.02995044 1.3964424e-38 295 214
-0.027688639 0.65799999 0.029996024 1.3872228e-38 296 214
-0.026534945 0.65799999 0.029996024 1.3780033e-38 297 214
-0.025496973 0.66100001 0.030132787 1.3962273e-38 298 214
-0.02433802 0.66100001 0.030132787 1.3962273e-38 299 214
-0.023179067 0.66100001 0.030132787 1.3962989e-38 300 214
-0.022053426 0.662 0.030178372 1.3686761e-38 301 214
-0.020892721 0.662 0.030178372 1.3870426e-38 302 214
-0.019732011 0.662 0.030178372 1.3870426e-38 303 214
-0.018571306 0.662 0.030178372 1.3870424e-38 304 214
-0.017436899 0.66299999 0.030223956 1.3870424e-38 305 214
-0.016298985 0.66399997 0.030269546 1.3871149e-38 306 214
-0.01518036 0.66600001 0.030360719 1.3963345e-38 307 214
-0.014012639 0.66600001 0.030360719 1.396227e-38 308 214
-0.012864206 0.667 0.030406304 1.3870073e-38 309 214
-0.011747333 0.67000002 0.030543067 1.4053388e-38 310 214
-0.0105726 0.67000002 0.030543067 1.3869357e-38 311 214
-0.0094118929 0.671 0.030588651 1.3777515e-38 312 214
-0.00824768 0.67199999 0.030634239 1.386971e-38 313 214
-0.0070694401 0.67199999 0.030634239 1.3687111e-38 314 214
-0.0059087332 0.67400002 0.030725412 1.3687111e-38 315 214
-0.0047269869 0.67400002 0.030725412 1.3870424e-38 316 214
-0.0035505001 0.67500001 0.030771 1.3686032e-38 317 214
-0.0023669999 0.67500001 0.030771 1.3777512e-38 318 214
-0.0011834999 0.67500001 0.030771 1.3685316e-38 319 214
0 0.676 0.030816587 1.3593484e-38 320 214
0.0011887599 0.67799997 0.030907756 1.3593484e-38 321 214
0.0023810267 0.67900002 0.030953348 1.3777515e-38 322 214
0.0035715401 0.67900002 0.030953348 1.3777515e-38 323 214
0.0047690663 0.68000001 0.030998932 1.3778228e-38 324 214
0.0059613334 0.68000001 0.030998932 1.3962978e-38 325 214
0.0071535995 0.68000001 0.030998932 1.3688906e-38 326 214
0.0083704125 0.68199998 0.031090107 1.3688906e-38 327 214
0.009566186 0.68199998 0.031090107 1.3504515e-38 328 214
0.01077774 0.68300003 0.031135695 1.3412319e-38 329 214
0.011975267 0.68300003 0.031135695 1.3595988e-38 330 214
0.013230653 0.68599999 0.031272452 1.3688183e-38 331 214
0.01443344 0.68599999 0.031272452 1.3871498e-38 332 214
0.015659019 0.68699998 0.031318039 1.3871498e-38 333 214
0.016888106 0.68800002 0.031363625 1.3871147e-38 334 214
0.018146999 0.69 0.031454802 1.3871147e-38 335 214
0.019356798 0.69 0.031454802 1.3963345e-38 336 214
0.020566599 0.69 0.031454802 1.3963345e-38 337 214
0.021807959 0.69099998 0.031500384 1.3871498e-38 338 214
0.023019511 0.69099998 0.031500384 1.4055891e-38 339 214
0.024301201 0.69300002 0.031591557 1.3872555e-38 340 214
0.025626717 0.69599998 0.031728316 1.3595969e-38 341 214
0.026885614 0.69700003 0.03177391 1.3228266e-38 342 214
0.028107686 0.69700003 0.03177391 1.3688884e-38 343 214
0.029371841 0.69800001 0.031819493 1.2681589e-38 344 214
0.030727165 0.70099998 0.031956252 1.305037e-38 345 214
0.031956252 0.70099998 0.031956252 1.3141849e-38 346 214
0.033280019 0.70300001 0.032047424 1.3141849e-38 347 214
0.034512613 0.70300001 0.032047424 1.3417005e-38 348 214
0.035745207 0.70300001 0.032047424 1.3232613e-38 349 214
0.036977798 0.70300001 0.032047424 1.3418453e-38 350 214
0.038210396 0.70300001 0.032047424 1.8397017e-38 351 214
0.039442986 0.70300001 0.032047424 1.3919e-38 352 214
-0.064491108 0.69400001 0.030420333 1.3367275e-38 267 215
-0.063000768 0.69099998 0.030288832 1.1776214e-38 268 215
-0.061789215 0.69099998 0.030288832 1.5556235e-38 269 215
-0.060489997 0.69 0.030244999 1.7056207e-38 270 215
-0.059022456 0.68699998 0.030113498 1.7978523e-38 271 215
-0.05739712 0.68199998 0.029894331 1.6235105e-38 272 215
-0.055871718 0.67799997 0.029718997 1.5866321e-38 273 215
-0.054521654 0.676 0.029631332 1.7244215e-38 274 215
-0.053257499 0.67500001 0.0295875 1.7705193e-38 275 215
-0.051842555 0.67199999 0.029455997 1.5214839e-38 276 215
-0.050588924 0.671 0.029412165 1.4200686e-38 277 215
-0.049412437 0.671 0.029412165 1.4024208e-38 278 215
-0.048164066 0.67000002 0.029368332 1.4116403e-38 279 215
-0.046849065 0.66799998 0.029280664 1.7233765e-38 280 215
-0.045541082 0.66600001 0.029192999 1.5850831e-38 281 215
-0.044106852 0.662 0.029017664 1.4730403e-38 282 215
-0.042751525 0.65899998 0.028886165 1.1687946e-38 283 215
-0.04153296 0.65799999 0.028842334 1.3970878e-38 284 215
-0.0403179 0.65700001 0.028798498 1.4616248e-38 285 215
-0.039046731 0.65499997 0.028710833 1.4436552e-38 286 215
-0.037898298 0.65499997 0.028710833 1.4436552e-38 287 215
-0.036749862 0.65499997 0.028710833 1.4339686e-38 288 215
-0.03560143 0.65499997 0.028710833 1.3602121e-38 289 215
-0.034452997 0.65499997 0.028710833 1.4239938e-38 290 215
-0.033304565 0.65499997 0.028710833 1.4147383e-38 291 215
-0.03225432 0.65700001 0.028798498 1.4055543e-38 292 215
-0.03110238 0.65700001 0.028798498 1.4055543e-38 293 215
-0.029996024 0.65799999 0.028842334 1.3779677e-38 294 215
-0.028842334 0.65799999 0.028842334 1.3871872e-38 295 215
-0.027688639 0.65799999 0.028842334 1.3872591e-38 296 215
-0.026534945 0.65799999 0.028842334 1.36882e-38 297 215
-0.025496973 0.66100001 0.028973831 1.3962276e-38 298 215
-0.02433802 0.66100001 0.028973831 1.3962276e-38 299 215
-0.023214132 0.662 0.029017664 1.3962276e-38 300 215
-0.022053426 0.662 0.029017664 1.3962276e-38 301 215
-0.020892721 0.662 0.029017664 1.4053385e-38 302 215
-0.019732011 0.662 0.029017664 1.3869354e-38 303 215
-0.018599359 0.66299999 0.029061496 1.386971e-38 304 215
-0.0174632 0.66399997 0.02910533 1.4053741e-38 305 215
-0.016348081 0.66600001 0.029192999 1.3870073e-38 306 215
-0.01518036 0.66600001 0.029192999 1.396227e-38 307 215
-0.014033679 0.667 0.029236831 1.3870076e-38 308 215
-0.012883492 0.66799998 0.029280664 1.3870076e-38 309 215
-0.011747333 0.67000002 0.029368332 1.3960827e-38 310 215
-0.0105726 0.67000002 0.029368332 1.4053023e-38 311 215
-0.0094118929 0.671 0.029412165 1.3870429e-38 312 215
-0.00824768 0.67199999 0.029455997 1.3870429e-38 313 215
-0.0070694401 0.67199999 0.029455997 1.3871149e-38 314 215
-0.0059087332 0.67400002 0.029543666 1.3686758e-38 315 215
-0.0047269869 0.67400002 0.029543666 1.3870426e-38 316 215
-0.0035505001 0.67500001 0.0295875 1.3778231e-38 317 215
-0.0023669999 0.67500001 0.0295875 1.3594918e-38 318 215
-0.0011852533 0.676 0.029631332 1.3317973e-38 319 215
0 0.67799997 0.029718997 1.3592765e-38 320 215
0.0011887599 0.67799997 0.029718997 1.3777515e-38 321 215
0.0023810267 0.67900002 0.029762832 1.3867922e-38 322 215
0.0035715401 0.67900002 0.029762832 1.340802e-38 323 215
0.0047690663 0.68000001 0.029806666 1.3132528e-38 324 215
0.0059613334 0.68000001 0.029806666 1.4329995e-38 325 215
0.00717464 0.68199998 0.029894331 1.4062766e-38 326 215
0.0083704125 0.68199998 0.029894331 1.3140809e-38 327 215
0.009566186 0.68199998 0.029894331 1.3597449e-38 328 215
0.01077774 0.68300003 0.029938167 1.3321222e-38 329 215
0.0119928 0.68400002 0.029982001 1.3504515e-38 330 215
0.013230653 0.68599999 0.030069664 1.3504515e-38 331 215
0.01443344 0.68599999 0.030069664 1.3870779e-38 332 215
0.015659019 0.68699998 0.030113498 1.3870779e-38 333 215
0.016888106 0.68800002 0.030157333 1.3963698e-38 334 215
0.018146999 0.69 0.030244999 1.4055894e-38 335 215
0.019356798 0.69 0.030244999 1.378003e-38 336 215
0.020566599 0.69 0.030244999 1.378003e-38 337 215
0.021807959 0.69099998 0.030288832 1.378003e-38 338 215
0.02308614 0.69300002 0.0303765 1.3964421e-38 339 215
0.024336265 0.69400001 0.030420333 1.3781102e-38 340 215
0.025626717 0.69599998 0.030507999 1.3781102e-38 341 215
0.026885614 0.69700003 0.030551834 1.3597787e-38 342 215
0.028107686 0.69700003 0.030551834 1.3782178e-38 343 215
0.029371841 0.69800001 0.030595668 1.3783619e-38 344 215
0.030683333 0.69999999 0.030683333 1.3599588e-38 345 215
0.031956252 0.70099998 0.030727165 1.3417356e-38 346 215
0.033280019 0.70300001 0.030814834 1.3325159e-38 347 215
0.034512613 0.70300001 0.030814834 1.3416638e-38 348 215
0.035745207 0.70300001 0.030814834 1.3140051e-38 349 215
0.036977798 0.70300001 0.030814834 1.3325161e-38 350 215
0.038210396 0.70300001 0.030814834 1.8580314e-38 351 215
0.039442986 0.70300001 0.030814834 1.4011901e-38 352 215
-0.061789215 0.69099998 0.029077278 1.5188901e-38 269 216
-0.060577665 0.69099998 0.029077278 1.6779277e-38 270 216
-0.059366114 0.69099998 0.029077278 1.7700873e-38 271 216
-0.05739712 0.68199998 0.02869856 1.6510616e-38 272 216
-0.055871718 0.67799997 0.028530238 1.5680855e-38 273 216
-0.054521654 0.676 0.028446076 1.659957e-38 274 216
-0.053178601 0.67400002 0.02836192 1.7337135e-38 275 216
-0.051842555 0.67199999 0.02827776 1.6235108e-38 276 216
-0.050588924 0.671 0.028235679 1.5405346e-38 277 216
-0.049412437 0.671 0.028235679 1.4946886e-38 278 216
-0.048164066 0.67000002 0.028193599 1.4393713e-38 279 216
-0.046849065 0.66799998 0.028109439 1.4295034e-38 280 216
-0.045541082 0.66600001 0.028025279 1.5861999e-38 281 216
-0.044106852 0.662 0.027856959 1.5854404e-38 282 216
-0.042881273 0.66100001 0.02781488 1.281195e-38 283 216
-0.04153296 0.65799999 0.027688639 1.4446978e-38 284 216
-0.0403179 0.65700001 0.027646558 1.2142089e-38 285 216
-0.039165959 0.65700001 0.027646558 1.4252879e-38 286 216
-0.037898298 0.65499997 0.027562398 1.4529467e-38 287 216
-0.036749862 0.65499997 0.027562398 1.4339689e-38 288 216
-0.03560143 0.65499997 0.027562398 1.3601765e-38 289 216
-0.034452997 0.65499997 0.027562398 1.42403e-38 290 216
-0.033304565 0.65499997 0.027562398 1.4148105e-38 291 216
-0.03225432 0.65700001 0.027646558 1.4147386e-38 292 216
-0.03110238 0.65700001 0.027646558 1.405519e-38 293 216
-0.029996024 0.65799999 0.027688639 1.4055188e-38 294 216
-0.028842334 0.65799999 0.027688639 1.3962992e-38 295 216
-0.027688639 0.65799999 0.027688639 1.3871872e-38 296 216
-0.026575271 0.65899998 0.027730718 1.3779677e-38 297 216
-0.025496973 0.66100001 0.02781488 1.3962992e-38 298 216
-0.024374841 0.662 0.027856959 1.3962992e-38 299 216
-0.023214132 0.662 0.027856959 1.3870793e-38 300 216
-0.022053426 0.662 0.027856959 1.3870793e-38 301 216
-0.020924279 0.66299999 0.027899038 1.4236335e-38 302 216
-0.019761819 0.66299999 0.027899038 1.4052304e-38 303 216
-0.018627413 0.66399997 0.027941117 1.3869354e-38 304 216
-0.0174632 0.66399997 0.027941117 1.4145941e-38 305 216
-0.016348081 0.66600001 0.028025279 1.3870796e-38 306 216
-0.01518036 0.66600001 0.028025279 1.3870796e-38 307 216
-0.014033679 0.667 0.028067358 1.377788e-38 308 216
-0.012883492 0.66799998 0.028109439 1.377788e-38 309 216
-0.011747333 0.67000002 0.028193599 1.3778234e-38 310 216
-0.01058838 0.671 0.028235679 1.3870429e-38 311 216
-0.0094118929 0.671 0.028235679 1.3871149e-38 312 216
-0.00824768 0.67199999 0.02827776 1.3686758e-38 313 216
-0.0070694401 0.67199999 0.02827776 1.3777878e-38 314 216
-0.0059087332 0.67400002 0.02836192 1.3777878e-38 315 216
-0.0047269869 0.67400002 0.02836192 1.3869357e-38 316 216
-0.0035505001 0.67500001 0.028404001 1.3777162e-38 317 216
-0.0023669999 0.67500001 0.028404001 1.3685685e-38 318 216
-0.0011852533 0.676 0.028446076 1.359313e-38 319 216
0 0.67799997 0.028530238 1.3408024e-38 320 216
0.0011887599 0.67799997 0.028530238 1.4883156e-38 321 216
0.0023810267 0.67900002 0.028572321 1.4894677e-38 322 216
0.0035715401 0.67900002 0.028572321 1.4156754e-38 323 216
0.0047690663 0.68000001 0.028614398 1.3693277e-38 324 216
0.0059613334 0.68000001 0.028614398 1.7104874e-38 325 216
0.00717464 0.68199998 0.02869856 1.5730569e-38 326 216
0.0083826864 0.68300003 0.028740639 1.1397734e-38 327 216
0.0095802136 0.68300003 0.028740639 1.3596733e-38 328 216
0.01077774 0.68300003 0.028740639 1.3504538e-38 329 216
0.0119928 0.68400002 0.02878272 1.3871142e-38 330 216
0.013230653 0.68599999 0.02886688 1.3687111e-38 331 216
0.014454478 0.68699998 0.028908957 1.3962975e-38 332 216
0.015659019 0.68699998 0.028908957 1.3962975e-38 333 216
0.016888106 0.68800002 0.028951041 1.4055175e-38 334 216
0.018146999 0.69 0.029035198 1.4147371e-38 335 216
0.019356798 0.69 0.029035198 1.4055894e-38 336 216
0.020596405 0.69099998 0.029077278 1.4055894e-38 337 216
0.021807959 0.69099998 0.029077278 1.3872579e-38 338 216
0.02308614 0.69300002 0.029161438 1.4148805e-38 339 216
0.0244064 0.69599998 0.029287677 1.3781099e-38 340 216
0.025663542 0.69700003 0.02932976 1.3781099e-38 341 216
0.026885614 0.69700003 0.02932976 1.3781099e-38 342 216
0.028148014 0.69800001 0.029371841 1.3873295e-38 343 216
0.029371841 0.69800001 0.029371841 1.3507392e-38 344 216
0.030683333 0.69999999 0.029455997 1.3599588e-38 345 216
0.031956252 0.70099998 0.029498078 1.3783263e-38 346 216
0.033280019 0.70300001 0.029582238 1.3783263e-38 347 216
0.034512613 0.70300001 0.029582238 1.3692148e-38 348 216
0.035745207 0.70300001 0.029582238 1.3139333e-38 349 216
0.036977798 0.70300001 0.029582238 1.332444e-38 350 216
0.038210396 0.70300001 0.029582238 1.922496e-38 351 216
0.039442986 0.70300001 0.029582238 1.4748016e-38 352 216
-0.057228796 0.68000001 0.027422134 1.6049657e-38 272 217
-0.056036532 0.68000001 0.027422134 1.595746e-38 273 217
-0.054521654 0.676 0.027260827 1.6601013e-38 274 217
-0.053178601 0.67400002 0.027180174 1.6693209e-38 275 217
-0.051842555 0.67199999 0.027099518 1.6605685e-38 276 217
-0.050588924 0.671 0.027059194 1.6697881e-38 277 217
-0.049412437 0.671 0.027059194 1.7066659e-38 278 217
-0.048164066 0.67000002 0.027018867 1.6513487e-38 279 217
-0.046849065 0.66799998 0.026938211 1.3284838e-38 280 217
-0.045609459 0.667 0.026897885 1.3192642e-38 281 217
-0.044240102 0.66399997 0.026776904 1.484965e-38 282 217
-0.042946145 0.662 0.026696252 1.4757454e-38 283 217
-0.041596077 0.65899998 0.026575271 1.5762233e-38 284 217
-0.040379263 0.65799999 0.026534945 1.0322689e-38 285 217
-0.039165959 0.65700001 0.026494619 1.3699734e-38 286 217
-0.038014017 0.65700001 0.026494619 1.4345104e-38 287 217
-0.036862079 0.65700001 0.026494619 1.4338983e-38 288 217
-0.035710141 0.65700001 0.026494619 1.3601418e-38 289 217
-0.034558199 0.65700001 0.026494619 1.43325e-38 290 217
-0.033406258 0.65700001 0.026494619 1.4148108e-38 291 217
-0.03225432 0.65700001 0.026494619 1.4147383e-38 292 217
-0.031149717 0.65799999 0.026534945 1.4055188e-38 293 217
-0.029996024 0.65799999 0.026534945 1.3779677e-38 294 217
-0.028886165 0.65899998 0.026575271 1.3871872e-38 295 217
-0.027730718 0.65899998 0.026575271 1.377968e-38 296 217
-0.026655925 0.66100001 0.026655925 1.377968e-38 297 217
-0.025496973 0.66100001 0.026655925 1.3962989e-38 298 217
-0.024374841 0.662 0.026696252 1.3962989e-38 299 217
-0.023214132 0.662 0.026696252 1.3871147e-38 300 217
-0.02208674 0.66299999 0.026736578 1.3687114e-38 301 217
-0.020924279 0.66299999 0.026736578 1.4145215e-38 302 217
-0.019761819 0.66299999 0.026736578 1.4145215e-38 303 217
-0.018627413 0.66399997 0.026776904 1.3686764e-38 304 217
-0.0174632 0.66399997 0.026776904 1.3870796e-38 305 217
-0.016348081 0.66600001 0.026857559 1.3962995e-38 306 217
-0.01518036 0.66600001 0.026857559 1.387044e-38 307 217
-0.014033679 0.667 0.026897885 1.3870076e-38 308 217
-0.012922067 0.67000002 0.027018867 1.3870076e-38 309 217
-0.011747333 0.67000002 0.027018867 1.3870793e-38 310 217
-0.01058838 0.671 0.027059194 1.3962989e-38 311 217
-0.0094118929 0.671 0.027059194 1.3687481e-38 312 217
-0.00824768 0.67199999 0.027099518 1.3687481e-38 313 217
-0.0070694401 0.67199999 0.027099518 1.3870429e-38 314 217
-0.0059087332 0.67400002 0.027180174 1.3685679e-38 315 217
-0.0047269869 0.67400002 0.027180174 1.3775358e-38 316 217
-0.0035505001 0.67500001 0.027220501 1.368352e-38 317 217
-0.0023669999 0.67500001 0.027220501 1.3505982e-38 318 217
-0.0011852533 0.676 0.027260827 1.4243547e-38 319 217
0 0.67799997 0.027341479 1.3140459e-38 320 217
0.0011887599 0.67799997 0.027341479 1.4799982e-38 321 217
0.0023810267 0.67900002 0.027381808 1.6015081e-38 322 217
0.0035767998 0.68000001 0.027422134 1.583105e-38 323 217
0.0047690663 0.68000001 0.027422134 1.4447763e-38 324 217
0.005978866 0.68199998 0.027502786 1.7766805e-38 325 217
0.00717464 0.68199998 0.027502786 1.5742078e-38 326 217
0.0083704125 0.68199998 0.027502786 8.5508185e-39 327 217
0.0095802136 0.68300003 0.027543113 1.3408746e-38 328 217
0.01079352 0.68400002 0.027583439 1.396192e-38 329 217
0.012027865 0.68599999 0.027664091 1.3780027e-38 330 217
0.013249939 0.68699998 0.027704418 1.3780027e-38 331 217
0.014454478 0.68699998 0.027704418 1.3963693e-38 332 217
0.015659019 0.68699998 0.027704418 1.3963693e-38 333 217
0.0169372 0.69 0.027825398 1.4147368e-38 334 217
0.018146999 0.69 0.027825398 1.4423953e-38 335 217
0.019384852 0.69099998 0.027865725 1.4148805e-38 336 217
0.020596405 0.69099998 0.027865725 1.4241001e-38 337 217
0.021871079 0.69300002 0.027946379 1.4058045e-38 338 217
0.023186078 0.69599998 0.028067358 1.415024e-38 339 217
0.024441468 0.69700003 0.028107686 1.396549e-38 340 217
0.025663542 0.69700003 0.028107686 1.3873295e-38 341 217
0.026924185 0.69800001 0.028148014 1.38733e-38 342 217
0.028148014 0.69800001 0.028148014 1.3965496e-38 343 217
0.029371841 0.69800001 0.028148014 1.3782903e-38 344 217
0.030683333 0.69999999 0.028228667 1.3875098e-38 345 217
0.031956252 0.70099998 0.028268991 1.378255e-38 346 217
0.033280019 0.70300001 0.028349647 1.378255e-38 347 217
0.034512613 0.70300001 0.028349647 1.3783266e-38 348 217
0.035745207 0.70300001 0.028349647 1.3322289e-38 349 217
0.036977798 0.70300001 0.028349647 1.3418431e-38 350 217
0.038210396 0.70300001 0.028349647 1.9411146e-38 351 217
0.039442986 0.70300001 0.028349647 1.4748019e-38 352 217
-0.055542093 0.67400002 0.025998428 1.4580644e-38 273 218
-0.054360349 0.67400002 0.025998428 1.6785773e-38 274 218
-0.053178601 0.67400002 0.025998428 1.6693578e-38 275 218
-0.051842555 0.67199999 0.025921278 1.6327669e-38 276 218
-0.050588924 0.671 0.025882706 1.6051082e-38 277 218
-0.049412437 0.671 0.025882706 1.6324425e-38 278 218
-0.048164066 0.67000002 0.025844134 1.6508816e-38 279 218
-0.046849065 0.66799998 0.025766984 1.6416974e-38 280 218
-0.045609459 0.667 0.025728412 1.5310628e-38 281 218
-0.044240102 0.66399997 0.025612691 1.3564304e-38 282 218
-0.042946145 0.662 0.025535546 1.3011131e-38 283 218
-0.041596077 0.65899998 0.025419824 1.4571967e-38 284 218
-0.040379263 0.65799999 0.025381252 9.5934028e-39 285 218
-0.039165959 0.65700001 0.025342681 1.3517504e-38 286 218
-0.038014017 0.65700001 0.025342681 1.4070678e-38 287 218
-0.036862079 0.65700001 0.025342681 1.4523378e-38 288 218
-0.035710141 0.65700001 0.025342681 1.3693616e-38 289 218
-0.034558199 0.65700001 0.025342681 1.4149907e-38 290 218
-0.033406258 0.65700001 0.025342681 1.3965156e-38 291 218
-0.032303412 0.65799999 0.025381252 1.3872591e-38 292 218
-0.031149717 0.65799999 0.025381252 1.36882e-38 293 218
-0.030041611 0.65899998 0.025419824 1.3780399e-38 294 218
-0.028973831 0.66100001 0.025496973 1.3688203e-38 295 218
-0.02781488 0.66100001 0.025496973 1.3962995e-38 296 218
-0.026655925 0.66100001 0.025496973 1.405519e-38 297 218
-0.025535546 0.662 0.025535546 1.396192e-38 298 218
-0.024374841 0.662 0.025535546 1.396192e-38 299 218
-0.023214132 0.662 0.025535546 1.396227e-38 300 218
-0.02208674 0.66299999 0.025574118 1.3870073e-38 301 218
-0.020924279 0.66299999 0.025574118 1.4053739e-38 302 218
-0.019761819 0.66299999 0.025574118 1.4053739e-38 303 218
-0.018627413 0.66399997 0.025612691 1.377788e-38 304 218
-0.017515799 0.66600001 0.02568984 1.377788e-38 305 218
-0.016348081 0.66600001 0.02568984 1.396192e-38 306 218
-0.015203152 0.667 0.025728412 1.396192e-38 307 218
-0.014054719 0.66799998 0.025766984 1.3870076e-38 308 218
-0.012922067 0.67000002 0.025844134 1.3870076e-38 309 218
-0.011764866 0.671 0.025882706 1.3687134e-38 310 218
-0.01058838 0.671 0.025882706 1.3594578e-38 311 218
-0.0094259195 0.67199999 0.025921278 1.3501316e-38 312 218
-0.00824768 0.67199999 0.025921278 1.3501316e-38 313 218
-0.0070904801 0.67400002 0.025998428 1.3871175e-38 314 218
-0.0059087332 0.67400002 0.025998428 1.442399e-38 315 218
-0.0047269869 0.67400002 0.025998428 1.4610175e-38 316 218
-0.0035505001 0.67500001 0.026037 1.5716882e-38 317 218
-0.0023705065 0.676 0.026075572 1.5092389e-38 318 218
-0.0011887599 0.67799997 0.026152719 1.6383128e-38 319 218
0 0.67799997 0.026152719 1.3813172e-38 320 218
0.0011905134 0.67900002 0.026191294 1.2614629e-38 321 218
0.0023845332 0.68000001 0.026229866 1.5190721e-38 322 218
0.0035767998 0.68000001 0.026229866 1.6204513e-38 323 218
0.004783093 0.68199998 0.026307013 1.4827697e-38 324 218
0.005978866 0.68199998 0.026307013 1.5473066e-38 325 218
0.00717464 0.68199998 0.026307013 1.4084346e-38 326 218
0.0083704125 0.68199998 0.026307013 6.8930866e-39 327 218
0.0095942402 0.68400002 0.02638416 1.368352e-38 328 218
