# .PCD v.7 - Point Cloud Data file format
FIELDS x y z rgb imX imY
SIZE 4 4 4 4 4 4
TYPE F F F F F F
COUNT 1 1 1 1 1 1
WIDTH 835
HEIGHT 1
VIEWPOINT 0 0 0 1 0 0 0
POINTS 835
DATA ascii
0.039113361 0.676 -0.013037786 2.5897019e-39 353 251
0.040298611 0.676 -0.013037786 2.7733869e-39 354 251
0.041606598 0.67799997 -0.013076359 2.8655825e-39 355 251
0.042795356 0.67799997 -0.013076359 2.2241788e-39 356 251
0.044048995 0.67900002 -0.013095647 2.40857e-39 357 251
0.045239504 0.67900002 -0.013095647 2.3185268e-39 358 251
0.046430022 0.67900002 -0.013095647 2.5025579e-39 359 251
0.047620531 0.67900002 -0.013095647 3.1461154e-39 360 251
0.048811045 0.67900002 -0.013095647 2.500746e-39 361 251
0.050001562 0.67900002 -0.013095647 2.6801024e-39 362 251
0.051116679 0.67799997 -0.013076359 2.4953524e-39 363 251
0.052305438 0.67799997 -0.013076359 2.2216424e-39 364 251
0.053494196 0.67799997 -0.013076359 2.4982279e-39 365 251
0.054682959 0.67799997 -0.013076359 2.6833366e-39 366 251
0.056942999 0.69099998 -0.013327086 2.7755323e-39 367 251
0.058154557 0.69099998 -0.013327086 3.2368635e-39 368 251
0.059366114 0.69099998 -0.013327086 3.4212548e-39 369 251
0.060752999 0.69300002 -0.01336566 4.0644746e-39 370 251
0.061968062 0.69300002 -0.01336566 4.4336173e-39 371 251
0.063183114 0.69300002 -0.01336566 1.0332334e-39 372 251
0.064398177 0.69300002 -0.01336566 4.0756878e-39 373 251
-0.087263398 0.71100003 -0.014959441 9.4071394e-39 250 252
-0.086016782 0.71100003 -0.014959441 6.8256618e-39 251 252
-0.079092868 0.69400001 -0.01460176 1.0419118e-38 255 252
-0.077876054 0.69400001 -0.01460176 5.9090724e-39 256 252
-0.07665924 0.69400001 -0.01460176 6.0934637e-39 257 252
-0.075659841 0.69599998 -0.014643839 6.2785654e-39 258 252
-0.074439511 0.69599998 -0.014643839 6.0016184e-39 259 252
-0.073219195 0.69599998 -0.014643839 5.815788e-39 260 252
-0.072205767 0.69800001 -0.01468592 4.8938317e-39 261 252
-0.071490414 0.70300001 -0.014791119 6.2778956e-39 262 252
-0.070357755 0.704 -0.014812159 9.4125484e-39 263 252
-0.06912341 0.704 -0.014812159 7.104799e-39 264 252
-0.067599766 0.70099998 -0.014749039 4.6158757e-39 265 252
-0.066370681 0.70099998 -0.014749039 4.2510155e-39 266 252
-0.065141588 0.70099998 -0.014749039 3.7903974e-39 267 252
-0.064368367 0.70599997 -0.014854239 3.7889639e-39 268 252
-0.063130513 0.70599997 -0.014854239 3.7889639e-39 269 252
-0.059964001 0.68400002 -0.01439136 3.4234254e-39 270 252
-0.058764715 0.68400002 -0.01439136 3.6078167e-39 271 252
-0.057565439 0.68400002 -0.01439136 3.9758789e-39 272 252
-0.056366164 0.68400002 -0.01439136 4.4364983e-39 273 252
-0.055166878 0.68400002 -0.01439136 4.3457474e-39 274 252
-0.053967599 0.68400002 -0.01439136 4.5304988e-39 275 252
-0.05292261 0.68599999 -0.01443344 4.9907539e-39 276 252
-0.051719822 0.68599999 -0.01443344 5.5439277e-39 277 252
-0.050517038 0.68599999 -0.01443344 5.4477468e-39 278 252
-0.049386136 0.68699998 -0.014454478 4.3414006e-39 279 252
-0.048251733 0.68800002 -0.014475521 3.0492255e-39 280 252
-0.047250576 0.69099998 -0.014538639 2.3116716e-39 281 252
-0.04617228 0.69300002 -0.014580719 2.9563166e-39 282 252
-0.044957221 0.69300002 -0.014580719 3.1407078e-39 283 252
-0.043742158 0.69300002 -0.014580719 2.5007306e-39 284 252
-0.042527102 0.69300002 -0.014580719 2.869153e-39 285 252
-0.041312039 0.69300002 -0.014580719 2.777686e-39 286 252
-0.04009698 0.69300002 -0.014580719 3.1461098e-39 287 252
-0.038938027 0.69400001 -0.01460176 5.7229464e-39 288 252
-0.037721213 0.69400001 -0.01460176 7.382109e-39 289 252
-0.036504399 0.69400001 -0.01460176 9.9470765e-39 290 252
-0.035287585 0.69400001 -0.01460176 9.3017071e-39 291 252
-0.034070771 0.69400001 -0.01460176 8.8486505e-39 292 252
-0.032853961 0.69400001 -0.01460176 1.0784759e-38 293 252
-0.031728316 0.69599998 -0.014643839 9.6823782e-39 294 252
-0.030420333 0.69400001 -0.01460176 8.2994438e-39 295 252
-0.029203519 0.69400001 -0.01460176 7.6544275e-39 296 252
-0.027986705 0.69400001 -0.01460176 6.2714931e-39 297 252
-0.026769891 0.69400001 -0.01460176 4.0616468e-39 298 252
-0.025553079 0.69400001 -0.01460176 3.3240803e-39 299 252
-0.024336265 0.69400001 -0.01460176 3.0521416e-39 300 252
-0.023119451 0.69400001 -0.01460176 3.5131183e-39 301 252
-0.021871079 0.69300002 -0.014580719 4.4339648e-39 302 252
-0.020596405 0.69099998 -0.014538639 4.3417691e-39 303 252
-0.019384852 0.69099998 -0.014538639 3.6985507e-39 304 252
-0.0181733 0.69099998 -0.014538639 3.5141595e-39 305 252
-0.01701084 0.69300002 -0.014580719 3.4187395e-39 306 252
-0.015795778 0.69300002 -0.014580719 3.0499583e-39 307 252
-0.014580719 0.69300002 -0.014580719 2.680471e-39 308 252
-0.013384946 0.69400001 -0.01460176 2.680471e-39 309 252
-0.0122032 0.69599998 -0.014643839 2.3138563e-39 310 252
-0.01099866 0.69700003 -0.01466488 2.5900844e-39 311 252
-0.0097765867 0.69700003 -0.01466488 2.8659608e-39 312 252
-0.0085545136 0.69700003 -0.01466488 3.1421876e-39 313 252
-0.00733244 0.69700003 -0.01466488 3.2343874e-39 314 252
-0.0061015999 0.69599998 -0.014643839 3.5109743e-39 315 252
-0.0048812795 0.69599998 -0.014643839 3.6053153e-39 316 252
-0.0036504399 0.69400001 -0.01460176 3.7897066e-39 317 252
-0.0024336267 0.69400001 -0.01460176 4.1577506e-39 318 252
-0.00121506 0.69300002 -0.014580719 4.1577506e-39 319 252
0 0.69300002 -0.014580719 4.1559514e-39 320 252
0.0012115532 0.69099998 -0.014538639 4.0637557e-39 321 252
0.0024231065 0.69099998 -0.014538639 3.2368859e-39 322 252
0.0036346598 0.69099998 -0.014538639 3.3290816e-39 323 252
0.0048462129 0.69099998 -0.014538639 3.3287341e-39 324 252
0.0060489997 0.69 -0.014517599 3.3287341e-39 325 252
0.0072587994 0.69 -0.014517599 3.5123966e-39 326 252
0.0084440531 0.68800002 -0.014475521 3.6045923e-39 327 252
0.0096222926 0.68599999 -0.01443344 3.6978445e-39 328 252
0.01079352 0.68400002 -0.01439136 4.066627e-39 329 252
0.0119928 0.68400002 -0.01439136 4.3417663e-39 330 252
0.01319208 0.68400002 -0.01439136 4.3417663e-39 331 252
0.014370319 0.68300003 -0.014370319 4.1584569e-39 332 252
0.015567848 0.68300003 -0.014370319 4.1584569e-39 333 252
0.016765373 0.68300003 -0.014370319 4.156652e-39 334 252
0.017936599 0.68199998 -0.01434928 3.696034e-39 335 252
0.019132372 0.68199998 -0.01434928 3.4176436e-39 336 252
0.020328145 0.68199998 -0.01434928 3.0488667e-39 337 252
0.021523919 0.68199998 -0.01434928 2.9563138e-39 338 252
0.022653066 0.68000001 -0.014307199 2.6793723e-39 339 252
0.023775198 0.67799997 -0.014265119 2.6786549e-39 340 252
0.024890319 0.676 -0.014223038 2.0332953e-39 341 252
0.026075572 0.676 -0.014223038 1.9389599e-39 342 252
0.027260827 0.676 -0.014223038 1.9389599e-39 343 252
0.028446076 0.676 -0.014223038 1.5744933e-39 344 252
0.029631332 0.676 -0.014223038 1.666689e-39 345 252
0.030771 0.67500001 -0.014202001 2.4035071e-39 346 252
0.031954501 0.67500001 -0.014202001 2.4960615e-39 347 252
0.033187091 0.676 -0.014223038 2.406377e-39 348 252
0.034372345 0.676 -0.014223038 2.406377e-39 349 252
0.035557602 0.676 -0.014223038 2.0383203e-39 350 252
0.036742851 0.676 -0.014223038 2.130516e-39 351 252
0.037928104 0.676 -0.014223038 2.4053232e-39 352 252
0.039113361 0.676 -0.014223038 2.4975188e-39 353 252
0.040417835 0.67799997 -0.014265119 2.3138591e-39 354 252
0.041606598 0.67799997 -0.014265119 2.4060561e-39 355 252
0.042858478 0.67900002 -0.01428616 2.2241816e-39 356 252
0.044048995 0.67900002 -0.01428616 2.5007684e-39 357 252
0.045239504 0.67900002 -0.01428616 2.5011188e-39 358 252
0.046430022 0.67900002 -0.01428616 2.5011188e-39 359 252
0.047620531 0.67900002 -0.01428616 2.6826332e-39 360 252
0.048811045 0.67900002 -0.01428616 2.2220138e-39 361 252
0.050001562 0.67900002 -0.01428616 2.126228e-39 362 252
0.051116679 0.67799997 -0.014265119 2.126228e-39 363 252
0.052305438 0.67799997 -0.014265119 1.7610398e-39 364 252
0.053494196 0.67799997 -0.014265119 2.0372666e-39 365 252
0.057102561 0.708 -0.01489632 2.040135e-39 366 252
0.058343921 0.708 -0.01489632 2.3170806e-39 367 252
0.059585281 0.708 -0.01489632 2.9610011e-39 368 252
0.060740728 0.70700002 -0.01487528 3.0531981e-39 369 252
0.061191335 0.69800001 -0.01468592 3.7882422e-39 370 252
0.062415157 0.69800001 -0.01468592 3.8804379e-39 371 252
0.064368367 0.70599997 -0.014854239 1.0321222e-39 372 252
0.065606222 0.70599997 -0.014854239 1.400546e-39 373 252
-0.090009116 0.713 -0.016251646 1.059883e-38 248 253
-0.08875899 0.713 -0.016251646 7.8326026e-39 249 253
-0.087263398 0.71100003 -0.01620606 5.4513061e-39 250 253
-0.086016782 0.71100003 -0.01620606 5.9119241e-39 251 253
-0.084770165 0.71100003 -0.01620606 6.7428016e-39 252 253
-0.080309682 0.69400001 -0.015818574 7.9363099e-39 254 253
-0.079092868 0.69400001 -0.015818574 7.7515599e-39 255 253
-0.077876054 0.69400001 -0.015818574 6.739189e-39 256 253
-0.07665924 0.69400001 -0.015818574 6.554439e-39 257 253
-0.075659841 0.69599998 -0.015864158 5.9094256e-39 258 253
-0.074439511 0.69599998 -0.015864158 5.4484474e-39 259 253
-0.073219195 0.69599998 -0.015864158 5.2586654e-39 260 253
-0.071998879 0.69599998 -0.015864158 3.5073267e-39 261 253
-0.071592107 0.704 -0.016046507 2.6829835e-39 262 253
-0.070357755 0.704 -0.016046507 3.5131029e-39 263 253
-0.06912341 0.704 -0.016046507 4.0637698e-39 264 253
-0.067599766 0.70099998 -0.015978126 4.2485197e-39 265 253
-0.066370681 0.70099998 -0.015978126 4.5250842e-39 266 253
-0.065327443 0.70300001 -0.016023712 4.2484987e-39 267 253
-0.064186029 0.704 -0.016046507 3.5141721e-39 268 253
-0.061163284 0.68400002 -0.01559064 3.2379453e-39 269 253
-0.059964001 0.68400002 -0.01559064 3.6978473e-39 270 253
-0.058764715 0.68400002 -0.01559064 3.7900443e-39 271 253
-0.057565439 0.68400002 -0.01559064 3.9769453e-39 272 253
-0.056366164 0.68400002 -0.01559064 4.2538923e-39 273 253
-0.055166878 0.68400002 -0.01559064 4.3468068e-39 274 253
-0.053967599 0.68400002 -0.01559064 4.5311995e-39 275 253
-0.05276832 0.68400002 -0.01559064 5.0814992e-39 276 253
-0.051719822 0.68599999 -0.015636226 5.1740536e-39 277 253
-0.050517038 0.68599999 -0.015636226 5.4495614e-39 278 253
-0.049314249 0.68599999 -0.015636226 5.7261497e-39 279 253
-0.048181597 0.68699998 -0.015659019 5.6274703e-39 280 253
-0.047045439 0.68800002 -0.015681813 4.1523388e-39 281 253
-0.045972396 0.69 -0.015727401 2.0411902e-39 282 253
-0.044827472 0.69099998 -0.015750192 2.0411902e-39 283 253
-0.043742158 0.69300002 -0.015795778 2.7762413e-39 284 253
-0.042527102 0.69300002 -0.015795778 2.8684369e-39 285 253
-0.041312039 0.69300002 -0.015795778 3.6038384e-39 286 253
-0.04009698 0.69300002 -0.015795778 3.419087e-39 287 253
-0.03888192 0.69300002 -0.015795778 5.8140476e-39 288 253
-0.037721213 0.69400001 -0.015818574 8.0267427e-39 289 253
-0.036504399 0.69400001 -0.015818574 9.6730007e-39 290 253
-0.035287585 0.69400001 -0.015818574 9.3042196e-39 291 253
-0.034070771 0.69400001 -0.015818574 7.9230985e-39 292 253
-0.032853961 0.69400001 -0.015818574 9.2138373e-39 293 253
-0.031637147 0.69400001 -0.015818574 1.1154264e-38 294 253
-0.030420333 0.69400001 -0.015818574 1.0508895e-38 295 253
-0.029203519 0.69400001 -0.015818574 8.2079488e-39 296 253
-0.027986705 0.69400001 -0.015818574 3.9669484e-39 297 253
-0.026769891 0.69400001 -0.015818574 7.5124171e-40 298 253
-0.025553079 0.69400001 -0.015818574 1.9494262e-39 299 253
-0.024336265 0.69400001 -0.015818574 2.8666769e-39 300 253
-0.02308614 0.69300002 -0.015795778 2.9588725e-39 301 253
-0.021807959 0.69099998 -0.015750192 3.9697566e-39 302 253
-0.020596405 0.69099998 -0.015750192 4.1545066e-39 303 253
-0.019384852 0.69099998 -0.015750192 3.5138063e-39 304 253
-0.0181733 0.69099998 -0.015750192 3.2368607e-39 305 253
-0.016961746 0.69099998 -0.015750192 3.1439448e-39 306 253
-0.015795778 0.69300002 -0.015795778 2.4985754e-39 307 253
-0.014580719 0.69300002 -0.015795778 2.4056735e-39 308 253
-0.013384946 0.69400001 -0.015818574 2.2216424e-39 309 253
-0.0122032 0.69599998 -0.015864158 2.4975216e-39 310 253
-0.01099866 0.69700003 -0.015886955 2.7741099e-39 311 253
-0.0097765867 0.69700003 -0.015886955 2.8673832e-39 312 253
-0.0085545136 0.69700003 -0.015886955 2.9595788e-39 313 253
-0.00733244 0.69700003 -0.015886955 3.6942712e-39 314 253
-0.0061015999 0.69599998 -0.015864158 3.9708567e-39 315 253
-0.0048812795 0.69599998 -0.015864158 3.7900597e-39 316 253
-0.0036504399 0.69400001 -0.015818574 4.1588408e-39 317 253
-0.0024336267 0.69400001 -0.015818574 4.0687948e-39 318 253
-0.00121506 0.69300002 -0.015795778 3.7922079e-39 319 253
0 0.69300002 -0.015795778 3.8826085e-39 320 253
0.0012115532 0.69099998 -0.015750192 3.5134658e-39 321 253
0.0024231065 0.69099998 -0.015750192 3.2372517e-39 322 253
0.0036346598 0.69099998 -0.015750192 3.2372517e-39 323 253
0.0048391996 0.69 -0.015727401 3.6042419e-39 324 253
0.0060489997 0.69 -0.015727401 3.6042419e-39 325 253
0.0072377604 0.68800002 -0.015681813 3.6056685e-39 326 253
0.0084440531 0.68800002 -0.015681813 3.6978641e-39 327 253
0.0096222926 0.68599999 -0.015636226 4.341416e-39 328 253
0.010825079 0.68599999 -0.015636226 4.4336117e-39 329 253
0.0119928 0.68400002 -0.01559064 4.4346836e-39 330 253
0.01319208 0.68400002 -0.01559064 4.342488e-39 331 253
0.01439136 0.68400002 -0.01559064 4.342488e-39 332 253
0.01559064 0.68400002 -0.01559064 3.8815099e-39 333 253
0.016765373 0.68300003 -0.015567848 4.2474211e-39 334 253
0.017962901 0.68300003 -0.015567848 3.6942473e-39 335 253
0.019160427 0.68300003 -0.015567848 3.4176703e-39 336 253
0.020328145 0.68199998 -0.015545053 3.2329203e-39 337 253
0.021523919 0.68199998 -0.015545053 2.7751847e-39 338 253
0.022653066 0.68000001 -0.015499466 2.6829891e-39 339 253
0.023775198 0.67799997 -0.015453878 1.9465031e-39 340 253
0.024890319 0.676 -0.015408293 1.3933293e-39 341 253
0.026075572 0.676 -0.015408293 1.8474859e-39 342 253
0.027260827 0.676 -0.015408293 1.8474859e-39 343 253
0.028446076 0.676 -0.015408293 1.8489194e-39 344 253
0.029631332 0.676 -0.015408293 2.4942888e-39 345 253
0.030816587 0.676 -0.015408293 2.5886229e-39 346 253
0.032001842 0.676 -0.015408293 2.7730141e-39 347 253
0.033187091 0.676 -0.015408293 2.1301656e-39 348 253
0.034372345 0.676 -0.015408293 2.03797e-39 349 253
0.0356628 0.67799997 -0.015453878 2.4028065e-39 350 253
0.036905911 0.67900002 -0.015476674 2.4950021e-39 351 253
0.038096428 0.67900002 -0.015476674 2.1294594e-39 352 253
0.039286941 0.67900002 -0.015476674 2.2220138e-39 353 253
0.040477451 0.67900002 -0.015476674 2.5868474e-39 354 253
0.041667968 0.67900002 -0.015476674 2.7715974e-39 355 253
0.042858478 0.67900002 -0.015476674 2.4971713e-39 356 253
0.044048995 0.67900002 -0.015476674 2.7737596e-39 357 253
0.045239504 0.67900002 -0.015476674 2.8666643e-39 358 253
0.046430022 0.67900002 -0.015476674 2.7741099e-39 359 253
0.047620531 0.67900002 -0.015476674 2.5893543e-39 360 253
0.048811045 0.67900002 -0.015476674 2.1280175e-39 361 253
0.050001562 0.67900002 -0.015476674 1.9425472e-39 362 253
0.051192071 0.67900002 -0.015476674 1.8503516e-39 363 253
0.052382588 0.67900002 -0.015476674 2.0351016e-39 364 253
0.053573098 0.67900002 -0.015476674 2.3116898e-39 365 253
0.057102561 0.708 -0.01613768 2.3145569e-39 366 253
0.058343921 0.708 -0.01613768 2.5911438e-39 367 253
0.059585281 0.708 -0.01613768 3.1439476e-39 368 253
0.060740728 0.70700002 -0.016114887 3.3283403e-39 369 253
0.061980337 0.70700002 -0.016114887 3.879712e-39 370 253
0.063130513 0.70599997 -0.016092092 4.1566576e-39 371 253
0.064368367 0.70599997 -0.016092092 4.2488701e-39 372 253
0.065606222 0.70599997 -0.016092092 4.8020438e-39 373 253
0.066844068 0.70599997 -0.016092092 7.1966289e-39 374 253
0.06808193 0.70599997 -0.016092092 6.1824756e-39 375 253
0.069516152 0.708 -0.01613768 3.9719104e-39 376 253
0.070757516 0.708 -0.01613768 2.588976e-39 377 253
0.071998879 0.708 -0.01613768 1.3072209e-39 378 253
-0.092249878 0.71100003 -0.01745268 2.2371071e-39 246 254
-0.091003262 0.71100003 -0.01745268 5.0951717e-39 247 254
-0.089756638 0.71100003 -0.01745268 8.0274055e-39 248 254
-0.088510022 0.71100003 -0.01745268 6.3678828e-39 249 254
-0.087263398 0.71100003 -0.01745268 6.832807e-39 250 254
-0.085895792 0.70999998 -0.017428132 7.1093953e-39 251 254
-0.084650926 0.70999998 -0.017428132 6.2792675e-39 252 254
-0.080309682 0.69400001 -0.017035386 8.0284579e-39 254 254
-0.079092868 0.69400001 -0.017035386 8.489436e-39 255 254
-0.077876054 0.69400001 -0.017035386 7.9355462e-39 256 254
-0.07665924 0.69400001 -0.017035386 7.2901768e-39 257 254
-0.075659841 0.69599998 -0.017084479 6.2781829e-39 258 254
-0.074439511 0.69599998 -0.017084479 5.0800096e-39 259 254
-0.073219195 0.69599998 -0.017084479 5.6249283e-39 260 254
-0.072412662 0.69999999 -0.017182667 4.7029819e-39 261 254
-0.071185328 0.69999999 -0.017182667 3.0488667e-39 262 254
-0.070257813 0.70300001 -0.017256306 2.9566725e-39 263 254
-0.068828844 0.70099998 -0.017207211 3.5109323e-39 264 254
-0.067599766 0.70099998 -0.017207211 4.1563017e-39 265 254
-0.066370681 0.70099998 -0.017207211 4.524015e-39 266 254
-0.065327443 0.70300001 -0.017256306 4.6162107e-39 267 254
-0.064186029 0.704 -0.017280852 4.5254345e-39 268 254
-0.062951677 0.704 -0.017280852 4.3414034e-39 269 254
-0.059964001 0.68400002 -0.016789921 3.5156028e-39 270 254
-0.058764715 0.68400002 -0.016789921 3.6077984e-39 271 254
-0.057565439 0.68400002 -0.016789921 3.5181251e-39 272 254
-0.056366164 0.68400002 -0.016789921 3.9787446e-39 273 254
-0.055166878 0.68400002 -0.016789921 4.0709458e-39 274 254
-0.053967599 0.68400002 -0.016789921 4.1631414e-39 275 254
-0.05276832 0.68400002 -0.016789921 4.3461034e-39 276 254
-0.051569041 0.68400002 -0.016789921 4.3461034e-39 277 254
-0.050369758 0.68400002 -0.016789921 4.7145145e-39 278 254
-0.049170479 0.68400002 -0.016789921 4.8989058e-39 279 254
-0.048181597 0.68699998 -0.01686356 4.8048801e-39 280 254
-0.047045439 0.68800002 -0.016888106 4.067315e-39 281 254
-0.045839146 0.68800002 -0.016888106 4.7065692e-39 282 254
-0.0447626 0.69 -0.0169372 4.4299865e-39 283 254
-0.043615919 0.69099998 -0.016961746 3.9697454e-39 284 254
-0.042342998 0.69 -0.0169372 3.8771911e-39 285 254
-0.041133199 0.69 -0.0169372 2.8680838e-39 286 254
-0.0399234 0.69 -0.0169372 3.5134532e-39 287 254
-0.038713597 0.69 -0.0169372 4.98501e-39 288 254
-0.03755815 0.69099998 -0.016961746 6.1835532e-39 289 254
-0.036451802 0.69300002 -0.01701084 7.8362754e-39 290 254
-0.035236739 0.69300002 -0.01701084 8.1132224e-39 291 254
-0.034021679 0.69300002 -0.01701084 8.4748289e-39 292 254
-0.032853961 0.69400001 -0.017035386 8.290439e-39 293 254
-0.031637147 0.69400001 -0.017035386 9.1288345e-39 294 254
-0.030420333 0.69400001 -0.017035386 1.0142986e-38 295 254
-0.029203519 0.69400001 -0.017035386 9.8649352e-39 296 254
-0.027986705 0.69400001 -0.017035386 4.7941756e-39 297 254
-0.026769891 0.69400001 -0.017035386 6.5829499e-40 298 254
-0.025553079 0.69400001 -0.017035386 2.5944032e-39 299 254
-0.024336265 0.69400001 -0.017035386 3.5095296e-39 300 254
-0.02308614 0.69300002 -0.01701084 2.5872132e-39 301 254
-0.021807959 0.69099998 -0.016961746 2.8663112e-39 302 254
-0.020596405 0.69099998 -0.016961746 3.1425379e-39 303 254
-0.019384852 0.69099998 -0.016961746 2.5025453e-39 304 254
-0.0181733 0.69099998 -0.016961746 2.4103483e-39 305 254
-0.016961746 0.69099998 -0.016961746 2.5003747e-39 306 254
-0.015795778 0.69300002 -0.01701084 2.2237864e-39 307 254
-0.01460176 0.69400001 -0.017035386 2.311687e-39 308 254
-0.013423519 0.69599998 -0.017084479 2.311687e-39 309 254
-0.012220734 0.69700003 -0.017109027 1.9457996e-39 310 254
-0.01099866 0.69700003 -0.017109027 2.591169e-39 311 254
-0.0097906133 0.69800001 -0.017133573 2.8688265e-39 312 254
-0.0085545136 0.69700003 -0.017109027 3.2376076e-39 313 254
-0.00733244 0.69700003 -0.017109027 4.0641229e-39 314 254
-0.0061015999 0.69599998 -0.017084479 4.4332641e-39 315 254
-0.0048672534 0.69400001 -0.017035386 4.1588352e-39 316 254
-0.0036504399 0.69400001 -0.017035386 4.3435866e-39 317 254
-0.00243012 0.69300002 -0.01701084 4.4361354e-39 318 254
-0.00121506 0.69300002 -0.01701084 4.251384e-39 319 254
0 0.69300002 -0.01701084 4.1588254e-39 320 254
0.0012115532 0.69099998 -0.016961746 3.9740754e-39 321 254
0.0024231065 0.69099998 -0.016961746 3.789694e-39 322 254
0.0036346598 0.69099998 -0.016961746 3.6974984e-39 323 254
0.0048391996 0.69 -0.0169372 3.6971452e-39 324 254
0.0060489997 0.69 -0.0169372 3.973372e-39 325 254
0.0072377604 0.68800002 -0.016888106 3.5156182e-39 326 254
0.0084440531 0.68800002 -0.016888106 3.7003682e-39 327 254
0.0096363192 0.68699998 -0.01686356 4.5261604e-39 328 254
0.010825079 0.68599999 -0.016839013 4.7101915e-39 329 254
0.012027865 0.68599999 -0.016839013 4.7098286e-39 330 254
0.013230653 0.68599999 -0.016839013 4.617633e-39 331 254
0.01443344 0.68599999 -0.016839013 4.5243653e-39 332 254
0.01559064 0.68400002 -0.016789921 4.339614e-39 333 254
0.016789921 0.68400002 -0.016789921 4.1541507e-39 334 254
0.0179892 0.68400002 -0.016789921 3.7857269e-39 335 254
0.019160427 0.68300003 -0.016765373 3.4191066e-39 336 254
0.020357953 0.68300003 -0.016765373 3.4191066e-39 337 254
0.021523919 0.68199998 -0.016740825 3.4194583e-39 338 254
0.022653066 0.68000001 -0.016691733 3.4194583e-39 339 254
0.023810266 0.67900002 -0.016667187 3.3240229e-39 340 254
0.024963958 0.67799997 -0.016642639 2.7708505e-39 341 254
0.026075572 0.676 -0.016593546 2.4002883e-39 342 254
0.027260827 0.676 -0.016593546 2.2158971e-39 343 254
0.028446076 0.676 -0.016593546 2.1262224e-39 344 254
0.029631332 0.676 -0.016593546 2.4950049e-39 345 254
0.030816587 0.676 -0.016593546 3.0481591e-39 346 254
0.032001842 0.676 -0.016593546 3.0481591e-39 347 254
0.033187091 0.676 -0.016593546 2.7708631e-39 348 254
0.034474038 0.67799997 -0.016642639 2.4946364e-39 349 254
0.035715401 0.67900002 -0.016667187 2.1269413e-39 350 254
0.036905911 0.67900002 -0.016667187 2.219497e-39 351 254
0.038152531 0.68000001 -0.016691733 2.3124115e-39 352 254
0.039286941 0.67900002 -0.016667187 2.3124115e-39 353 254
0.040477451 0.67900002 -0.016667187 2.3117053e-39 354 254
0.041667968 0.67900002 -0.016667187 2.3117053e-39 355 254
0.042921599 0.68000001 -0.016691733 2.2202383e-39 356 254
0.044113863 0.68000001 -0.016691733 2.5886621e-39 357 254
0.045306131 0.68000001 -0.016691733 3.1396681e-39 358 254
0.046498399 0.68000001 -0.016691733 3.1396681e-39 359 254
0.047690667 0.68000001 -0.016691733 2.680471e-39 360 254
0.048882935 0.68000001 -0.016691733 2.3116898e-39 361 254
0.050075196 0.68000001 -0.016691733 2.035096e-39 362 254
0.051267464 0.68000001 -0.016691733 2.035096e-39 363 254
0.052459732 0.68000001 -0.016691733 1.9439849e-39 364 254
0.053652 0.68000001 -0.016691733 2.2202131e-39 365 254
0.057102561 0.708 -0.017379038 2.0383428e-39 366 254
0.058343921 0.708 -0.017379038 2.4071253e-39 367 254
0.059585281 0.708 -0.017379038 2.5003901e-39 368 254
0.060826641 0.708 -0.017379038 2.6851401e-39 369 254
0.062068 0.708 -0.017379038 3.3287088e-39 370 254
0.063219935 0.70700002 -0.017354494 3.5131001e-39 371 254
0.064459547 0.70700002 -0.017354494 3.5152553e-39 372 254
0.065606222 0.70599997 -0.017329946 3.9758733e-39 373 254
0.066844068 0.70599997 -0.017329946 4.5250632e-39 374 254
0.068467662 0.70999998 -0.017428132 3.8796938e-39 375 254
0.069516152 0.708 -0.017379038 2.9599011e-39 376 254
0.070757516 0.708 -0.017379038 3.7900079e-39 377 254
0.071998879 0.708 -0.017379038 5.170448e-39 378 254
-0.095854729 0.70999998 -0.018672999 1.5949864e-38 243 255
-0.094609864 0.70999998 -0.018672999 9.9707725e-39 244 255
-0.093496501 0.71100003 -0.0186993 3.148656e-39 245 255
-0.092249878 0.71100003 -0.0186993 6.7589529e-40 246 255
-0.091003262 0.71100003 -0.0186993 5.2856768e-39 247 255
-0.089630395 0.70999998 -0.018672999 9.2248935e-39 248 255
-0.08838553 0.70999998 -0.018672999 7.1965897e-39 249 255
-0.087140657 0.70999998 -0.018672999 6.922839e-39 250 255
-0.085895792 0.70999998 -0.018672999 7.0150346e-39 251 255
-0.084650926 0.70999998 -0.018672999 7.7511675e-39 252 255
-0.083053641 0.70700002 -0.018594101 8.4887326e-39 253 255
-0.079890631 0.70099998 -0.018436298 8.6731238e-39 255 255
-0.077321991 0.69999999 -0.018409999 7.200149e-39 257 255
-0.076094657 0.69999999 -0.018409999 7.0161066e-39 258 255
-0.07486733 0.69999999 -0.018409999 5.6328163e-39 259 255
-0.073639996 0.69999999 -0.018409999 5.1675403e-39 260 255
-0.072412662 0.69999999 -0.018409999 4.7065692e-39 261 255
-0.071185328 0.69999999 -0.018409999 4.1537625e-39 262 255
-0.070257813 0.70300001 -0.018488899 3.9697328e-39 263 255
-0.068828844 0.70099998 -0.018436298 3.9704657e-39 264 255
-0.067599766 0.70099998 -0.018436298 4.2470526e-39 265 255
-0.066370681 0.70099998 -0.018436298 4.4321697e-39 266 255
-0.065327443 0.70300001 -0.018488899 4.7087566e-39 267 255
-0.064186029 0.704 -0.018515198 4.3439201e-39 268 255
-0.063219935 0.70700002 -0.018594101 4.2517245e-39 269 255
-0.059964001 0.68400002 -0.0179892 3.8843811e-39 270 255
-0.058764715 0.68400002 -0.0179892 3.8843811e-39 271 255
-0.057565439 0.68400002 -0.0179892 4.068778e-39 272 255
-0.056366164 0.68400002 -0.0179892 4.160975e-39 273 255
-0.055166878 0.68400002 -0.0179892 4.2535392e-39 274 255
-0.053967599 0.68400002 -0.0179892 4.3457348e-39 275 255
-0.05276832 0.68400002 -0.0179892 4.4368543e-39 276 255
-0.051569041 0.68400002 -0.0179892 4.4368543e-39 277 255
-0.050369758 0.68400002 -0.0179892 4.5283282e-39 278 255
-0.049170479 0.68400002 -0.0179892 4.5283282e-39 279 255
-0.048111461 0.68599999 -0.018041799 4.7101943e-39 280 255
-0.046908677 0.68599999 -0.018041799 4.7101943e-39 281 255
-0.045772515 0.68699998 -0.018068098 5.3533973e-39 282 255
-0.044632856 0.68800002 -0.0180944 5.1693662e-39 283 255
-0.043426562 0.68800002 -0.0180944 3.5120057e-39 284 255
-0.042220265 0.68800002 -0.0180944 2.9588319e-39 285 255
-0.041013971 0.68800002 -0.0180944 2.8684369e-39 286 255
-0.039807681 0.68800002 -0.0180944 3.4216107e-39 287 255
-0.038601387 0.68800002 -0.0180944 4.525457e-39 288 255
-0.03755815 0.69099998 -0.0181733 4.9864351e-39 289 255
-0.036346599 0.69099998 -0.0181733 5.5400027e-39 290 255
-0.035236739 0.69300002 -0.018225901 6.7381871e-39 291 255
-0.034021679 0.69300002 -0.018225901 9.121992e-39 292 255
-0.03280662 0.69300002 -0.018225901 9.2145463e-39 293 255
-0.031637147 0.69400001 -0.0182522 8.1136064e-39 294 255
-0.030420333 0.69400001 -0.0182522 9.2199553e-39 295 255
-0.029203519 0.69400001 -0.0182522 1.1247166e-38 296 255
-0.027986705 0.69400001 -0.0182522 7.2827541e-39 297 255
-0.02673132 0.69300002 -0.018225901 1.6688946e-39 298 255
-0.02551626 0.69300002 -0.018225901 4.065981e-39 299 255
-0.024301201 0.69300002 -0.018225901 4.6119367e-39 300 255
-0.02308614 0.69300002 -0.018225901 1.9379033e-39 301 255
-0.021807959 0.69099998 -0.0181733 3.323674e-39 302 255
-0.020596405 0.69099998 -0.0181733 3.5080652e-39 303 255
-0.019384852 0.69099998 -0.0181733 2.5918697e-39 304 255
-0.0181733 0.69099998 -0.0181733 2.5918697e-39 305 255
-0.016961746 0.69099998 -0.0181733 2.6822646e-39 306 255
-0.015795778 0.69300002 -0.018225901 2.1294496e-39 307 255
-0.01460176 0.69400001 -0.0182522 2.1262252e-39 308 255
-0.013423519 0.69599998 -0.018304799 1.9418339e-39 309 255
-0.012220734 0.69700003 -0.018331099 2.2191565e-39 310 255
-0.01099866 0.69700003 -0.018331099 3.0489172e-39 311 255
-0.0097765867 0.69700003 -0.018331099 3.2365328e-39 312 255
-0.0085422397 0.69599998 -0.018304799 3.697511e-39 313 255
-0.0073219193 0.69599998 -0.018304799 4.1581164e-39 314 255
-0.0061015999 0.69599998 -0.018304799 4.2506707e-39 315 255
-0.0048672534 0.69400001 -0.0182522 4.52618e-39 316 255
-0.0036451798 0.69300002 -0.018225901 4.6183757e-39 317 255
-0.00243012 0.69300002 -0.018225901 4.4347075e-39 318 255
-0.00121506 0.69300002 -0.018225901 4.4347075e-39 319 255
0 0.69300002 -0.018225901 4.251391e-39 320 255
0.0012115532 0.69099998 -0.0181733 3.9748041e-39 321 255
0.0024231065 0.69099998 -0.0181733 3.8826057e-39 322 255
0.0036293997 0.69 -0.018146999 3.8826057e-39 323 255
0.0048391996 0.69 -0.018146999 3.8826085e-39 324 255
0.0060314666 0.68800002 -0.0180944 3.8826085e-39 325 255
0.0072377604 0.68800002 -0.0180944 3.9751572e-39 326 255
0.0084317802 0.68699998 -0.018068098 4.1591884e-39 327 255
0.0096363192 0.68699998 -0.018068098 4.7098412e-39 328 255
0.010840859 0.68699998 -0.018068098 4.7098412e-39 329 255
0.012027865 0.68599999 -0.018041799 4.4336173e-39 330 255
0.013230653 0.68599999 -0.018041799 4.1566716e-39 331 255
0.01443344 0.68599999 -0.018041799 3.9712042e-39 332 255
0.015636226 0.68599999 -0.018041799 3.8790085e-39 333 255
0.016839013 0.68599999 -0.018041799 3.6031447e-39 334 255
0.018041799 0.68599999 -0.018041799 3.6031447e-39 335 255
0.01918848 0.68400002 -0.0179892 3.1446875e-39 336 255
0.020357953 0.68300003 -0.017962901 3.0524919e-39 337 255
0.02155548 0.68300003 -0.017962901 3.2358098e-39 338 255
0.022719691 0.68199998 -0.017936599 3.0517786e-39 339 255
0.023845334 0.68000001 -0.017883999 3.0496206e-39 340 255
0.024963958 0.67799997 -0.0178314 2.4042512e-39 341 255
0.026152719 0.67799997 -0.0178314 2.3098906e-39 342 255
0.027341479 0.67799997 -0.0178314 2.3098906e-39 343 255
0.028530238 0.67799997 -0.0178314 2.2198473e-39 344 255
0.029718997 0.67799997 -0.0178314 2.6804654e-39 345 255
0.030907756 0.67799997 -0.0178314 2.9566851e-39 346 255
0.03209652 0.67799997 -0.0178314 2.9566851e-39 347 255
0.033285279 0.67799997 -0.0178314 2.7705002e-39 348 255
0.034524884 0.67900002 -0.017857701 2.5861075e-39 349 255
0.035715401 0.67900002 -0.017857701 2.2194914e-39 350 255
0.036905911 0.67900002 -0.017857701 2.311687e-39 351 255
0.038152531 0.68000001 -0.017883999 2.4049603e-39 352 255
0.039344799 0.68000001 -0.017883999 2.3124059e-39 353 255
0.040537067 0.68000001 -0.017883999 2.0365449e-39 354 255
0.041729335 0.68000001 -0.017883999 2.0365449e-39 355 255
0.042921599 0.68000001 -0.017883999 2.677964e-39 356 255
0.044243611 0.68199998 -0.017936599 3.0471053e-39 357 255
0.045439381 0.68199998 -0.017936599 2.8655853e-39 358 255
0.046635158 0.68199998 -0.017936599 2.8655853e-39 359 255
0.047690667 0.68000001 -0.017883999 2.590069e-39 360 255
0.048882935 0.68000001 -0.017883999 2.1294496e-39 361 255
0.050075196 0.68000001 -0.017883999 2.128365e-39 362 255
0.051267464 0.68000001 -0.017883999 2.2205606e-39 363 255
0.054851279 0.71100003 -0.0186993 2.129444e-39 364 255
0.056097899 0.71100003 -0.0186993 2.2219983e-39 365 255
0.057263866 0.70999998 -0.018672999 2.3145569e-39 366 255
0.058508728 0.70999998 -0.018672999 2.5911438e-39 367 255
0.059753593 0.70999998 -0.018672999 2.7755323e-39 368 255
0.060826641 0.708 -0.0186204 3.0524779e-39 369 255
0.062068 0.708 -0.0186204 3.3283431e-39 370 255
0.063309364 0.708 -0.0186204 3.4205387e-39 371 255
0.06455072 0.708 -0.0186204 3.8807938e-39 372 255
0.065699153 0.70700002 -0.018594101 4.341772e-39 373 255
0.066938758 0.70700002 -0.018594101 5.1693634e-39 374 255
0.068467662 0.70999998 -0.018672999 4.8927751e-39 375 255
0.069516152 0.708 -0.0186204 4.797002e-39 376 255
0.070757516 0.708 -0.0186204 9.9599572e-39 377 255
0.071998879 0.708 -0.0186204 1.2908773e-38 378 255
-0.097099595 0.70999998 -0.019917866 1.7793775e-38 242 256
-0.095854729 0.70999998 -0.019917866 1.4659125e-38 243 256
-0.094609864 0.70999998 -0.019917866 7.2085007e-39 244 256
-0.093364999 0.70999998 -0.019917866 2.1380998e-39 245 256
-0.092249878 0.71100003 -0.01994592 3.1529496e-39 246 256
-0.090875261 0.70999998 -0.019917866 6.7489379e-39 247 256
-0.089630395 0.70999998 -0.019917866 8.4855278e-39 248 256
-0.08838553 0.70999998 -0.019917866 6.0888002e-39 249 256
-0.086895198 0.708 -0.01986176 5.9980058e-39 250 256
-0.085532859 0.70700002 -0.019833706 5.7217819e-39 251 256
-0.084293254 0.70700002 -0.019833706 6.466544e-39 252 256
-0.083053641 0.70700002 -0.019833706 7.7572828e-39 253 256
-0.081119716 0.70099998 -0.019665385 8.7660425e-39 254 256
-0.079890631 0.70099998 -0.019665385 8.5816499e-39 255 256
-0.078549333 0.69999999 -0.019637333 8.763509e-39 256 256
-0.077321991 0.69999999 -0.019637333 8.4869207e-39 257 256
-0.076094657 0.69999999 -0.019637333 7.5685559e-39 258 256
-0.07486733 0.69999999 -0.019637333 6.9231865e-39 259 256
-0.073639996 0.69999999 -0.019637333 6.5490188e-39 260 256
-0.072412662 0.69999999 -0.019637333 5.4426881e-39 261 256
-0.071490414 0.70300001 -0.019721493 4.3388685e-39 262 256
-0.070257813 0.70300001 -0.019721493 4.1541213e-39 263 256
-0.069025226 0.70300001 -0.019721493 3.6946005e-39 264 256
-0.067792632 0.70300001 -0.019721493 3.8789931e-39 265 256
-0.066654719 0.704 -0.019749546 4.247068e-39 266 256
-0.065420374 0.704 -0.019749546 4.6162107e-39 267 256
-0.064368367 0.70599997 -0.019805651 4.802027e-39 268 256
-0.063219935 0.70700002 -0.019833706 4.8942241e-39 269 256
-0.059964001 0.68400002 -0.01918848 4.8030976e-39 270 256
-0.058764715 0.68400002 -0.01918848 4.8030976e-39 271 256
-0.057565439 0.68400002 -0.01918848 4.6194294e-39 272 256
-0.056366164 0.68400002 -0.01918848 4.8041794e-39 273 256
-0.055166878 0.68400002 -0.01918848 4.6212329e-39 274 256
-0.053967599 0.68400002 -0.01918848 4.6212329e-39 275 256
-0.05276832 0.68400002 -0.01918848 4.620877e-39 276 256
-0.051569041 0.68400002 -0.01918848 4.5286813e-39 277 256
-0.050369758 0.68400002 -0.01918848 4.2531735e-39 278 256
-0.049170479 0.68400002 -0.01918848 4.2531735e-39 279 256
-0.048111461 0.68599999 -0.019244585 4.4346836e-39 280 256
-0.046908677 0.68599999 -0.019244585 4.7116307e-39 281 256
-0.045705888 0.68599999 -0.019244585 5.2644317e-39 282 256
-0.044567976 0.68699998 -0.019272638 5.7254099e-39 283 256
-0.043363437 0.68699998 -0.019272638 5.7203722e-39 284 256
-0.042220265 0.68800002 -0.019300694 4.6136645e-39 285 256
-0.041013971 0.68800002 -0.019300694 2.4103272e-39 286 256
-0.039807681 0.68800002 -0.019300694 3.0556967e-39 287 256
-0.038601387 0.68800002 -0.019300694 3.8811567e-39 288 256
-0.037503798 0.69 -0.019356798 3.8811567e-39 289 256
-0.036346599 0.69099998 -0.019384852 4.4354417e-39 290 256
-0.035084199 0.69 -0.019356798 6.0031276e-39 291 256
-0.0338744 0.69 -0.019356798 8.5759956e-39 292 256
-0.03280662 0.69300002 -0.01944096 8.7600268e-39 293 256
-0.031591557 0.69300002 -0.01944096 8.2057838e-39 294 256
-0.0303765 0.69300002 -0.01944096 8.5745649e-39 295 256
-0.029203519 0.69400001 -0.019469013 9.4968884e-39 296 256
-0.027986705 0.69400001 -0.019469013 7.8377272e-39 297 256
-0.02673132 0.69300002 -0.01944096 4.2457059e-39 298 256
-0.02551626 0.69300002 -0.01944096 4.7063254e-39 299 256
-0.024301201 0.69300002 -0.01944096 4.3375106e-39 300 256
-0.02308614 0.69300002 -0.01944096 1.4798048e-39 301 256
-0.021807959 0.69099998 -0.019384852 3.2304021e-39 302 256
-0.020596405 0.69099998 -0.019384852 3.3225978e-39 303 256
-0.019384852 0.69099998 -0.019384852 2.5900718e-39 304 256
-0.0181733 0.69099998 -0.019384852 2.6822674e-39 305 256
-0.016961746 0.69099998 -0.019384852 2.2220081e-39 306 256
-0.015795778 0.69300002 -0.01944096 1.7613901e-39 307 256
-0.014580719 0.69300002 -0.01944096 1.9421969e-39 308 256
-0.013423519 0.69599998 -0.019525118 2.1269469e-39 309 256
-0.0122032 0.69599998 -0.019525118 1.9457996e-39 310 256
-0.010982879 0.69599998 -0.019525118 2.6833646e-39 311 256
-0.0097625591 0.69599998 -0.019525118 3.2379607e-39 312 256
-0.0085422397 0.69599998 -0.019525118 3.9755258e-39 313 256
-0.0073219193 0.69599998 -0.019525118 4.3428608e-39 314 256
-0.0060840664 0.69400001 -0.019469013 4.3428608e-39 315 256
-0.00486024 0.69300002 -0.01944096 4.8009691e-39 316 256
-0.0036451798 0.69300002 -0.01944096 4.8009691e-39 317 256
-0.00243012 0.69300002 -0.01944096 4.4347103e-39 318 256
-0.0012115532 0.69099998 -0.019384852 4.4347103e-39 319 256
0 0.69099998 -0.019384852 4.4354165e-39 320 256
0.0012115532 0.69099998 -0.019384852 4.4354165e-39 321 256
0.0024231065 0.69099998 -0.019384852 4.6190819e-39 322 256
0.0036293997 0.69 -0.019356798 4.4343305e-39 323 256
0.0048391996 0.69 -0.019356798 4.7094783e-39 324 256
0.0060314666 0.68800002 -0.019300694 4.7094783e-39 325 256
0.0072377604 0.68800002 -0.019300694 4.5258101e-39 326 256
0.0084317802 0.68699998 -0.019272638 4.4336145e-39 327 256
0.0096363192 0.68699998 -0.019272638 4.4303915e-39 328 256
0.010840859 0.68699998 -0.019272638 4.1538032e-39 329 256
0.012045399 0.68699998 -0.019272638 3.7853934e-39 330 256
0.013249939 0.68699998 -0.019272638 3.6931978e-39 331 256
0.014454478 0.68699998 -0.019272638 3.1414659e-39 332 256
0.015636226 0.68599999 -0.019244585 3.1414659e-39 333 256
0.016839013 0.68599999 -0.019244585 3.0499892e-39 334 256
0.018041799 0.68599999 -0.019244585 3.2347406e-39 335 256
0.019244585 0.68599999 -0.019244585 2.9599459e-39 336 256
0.020447372 0.68599999 -0.019244585 3.1443372e-39 337 256
0.02158704 0.68400002 -0.01918848 3.2350909e-39 338 256
0.022753006 0.68300003 -0.019160427 3.1428939e-39 339 256
0.023915464 0.68199998 -0.019132372 3.2336419e-39 340 256
0.025037598 0.68000001 -0.019076265 2.7726638e-39 341 256
0.026229866 0.68000001 -0.019076265 2.587904e-39 342 256
0.027381808 0.67900002 -0.019048214 2.587904e-39 343 256
0.028572321 0.67900002 -0.019048214 2.4053106e-39 344 256
0.029806666 0.68000001 -0.019076265 2.4975062e-39 345 256
0.030998932 0.68000001 -0.019076265 2.9566851e-39 346 256
0.032191198 0.68000001 -0.019076265 2.7722953e-39 347 256
0.033383466 0.68000001 -0.019076265 2.4953524e-39 348 256
0.034575731 0.68000001 -0.019076265 2.4031568e-39 349 256
0.035767999 0.68000001 -0.019076265 2.4031624e-39 350 256
0.036960267 0.68000001 -0.019076265 2.495358e-39 351 256
0.038264744 0.68199998 -0.019132372 2.4960769e-39 352 256
0.039460517 0.68199998 -0.019132372 2.5882725e-39 353 256
0.040656291 0.68199998 -0.019132372 2.4953678e-39 354 256
0.041852064 0.68199998 -0.019132372 2.2191411e-39 355 256
0.043047838 0.68199998 -0.019132372 2.4953735e-39 356 256
0.044243611 0.68199998 -0.019132372 2.7719603e-39 357 256
0.045439381 0.68199998 -0.019132372 2.4975216e-39 358 256
0.046635158 0.68199998 -0.019132372 2.5897187e-39 359 256
0.047830928 0.68199998 -0.019132372 2.77337e-39 360 256
0.048882935 0.68000001 -0.019076265 2.77337e-39 361 256
0.050075196 0.68000001 -0.019076265 2.4989299e-39 362 256
0.051267464 0.68000001 -0.019076265 2.4067357e-39 363 256
0.055005573 0.713 -0.020002026 2.4982125e-39 364 256
0.056255698 0.713 -0.020002026 2.5904081e-39 365 256
0.057344519 0.71100003 -0.01994592 2.3159848e-39 366 256
0.058508728 0.70999998 -0.019917866 2.5925731e-39 367 256
0.059753593 0.70999998 -0.019917866 2.8691558e-39 368 256
0.060826641 0.708 -0.01986176 3.0535485e-39 369 256
0.062068 0.708 -0.01986176 3.4216107e-39 370 256
0.063309364 0.708 -0.01986176 3.5138063e-39 371 256
0.06455072 0.708 -0.01986176 3.7893142e-39 372 256
0.065699153 0.70700002 -0.019833706 4.1584569e-39 373 256
0.066938758 0.70700002 -0.019833706 3.8847371e-39 374 256
0.068274796 0.708 -0.01986176 3.1468133e-39 375 256
0.069516152 0.708 -0.01986176 5.6249676e-39 376 256
0.070757516 0.708 -0.01986176 1.2724031e-38 377 256
0.071998879 0.708 -0.01986176 1.6685939e-38 378 256
-0.09834446 0.70999998 -0.021162732 1.7976368e-38 241 257
-0.097099595 0.70999998 -0.021162732 1.6597381e-38 242 257
-0.095854729 0.70999998 -0.021162732 1.2448578e-38 243 257
-0.094343357 0.708 -0.021103119 6.100714e-39 244 257
-0.093101993 0.708 -0.021103119 3.3344864e-39 245 257
-0.091860637 0.708 -0.021103119 4.529403e-39 246 257
-0.090619281 0.708 -0.021103119 6.1889258e-39 247 257
-0.089377917 0.708 -0.021103119 6.733801e-39 248 257
-0.088012077 0.70700002 -0.021073313 5.4430622e-39 249 257
-0.086772464 0.70700002 -0.021073313 5.260452e-39 250 257
-0.085411869 0.70599997 -0.021043506 4.8916751e-39 251 257
-0.083935574 0.704 -0.020983893 6.925004e-39 252 257
-0.082348801 0.70099998 -0.020894472 8.4923297e-39 253 257
-0.081119716 0.70099998 -0.020894472 8.58238e-39 254 257
-0.079890631 0.70099998 -0.020894472 8.3979887e-39 255 257
-0.078661539 0.70099998 -0.020894472 8.8564389e-39 256 257
-0.077321991 0.69999999 -0.020864666 8.5802122e-39 257 257
-0.076094657 0.69999999 -0.020864666 8.211773e-39 258 257
-0.07486733 0.69999999 -0.020864666 7.6586006e-39 259 257
-0.073639996 0.69999999 -0.020864666 6.9213873e-39 260 257
-0.072412662 0.69999999 -0.020864666 5.6306639e-39 261 257
-0.071287021 0.70099998 -0.020894472 5.0760636e-39 262 257
-0.070257813 0.70300001 -0.020954086 4.338151e-39 263 257
-0.069025226 0.70300001 -0.020954086 3.602402e-39 264 257
-0.067792632 0.70300001 -0.020954086 3.6945977e-39 265 257
-0.066844068 0.70599997 -0.021043506 3.7857409e-39 266 257
-0.065606222 0.70599997 -0.021043506 4.2467177e-39 267 257
-0.06227139 0.68300003 -0.020357953 3.9737251e-39 268 257
-0.061073858 0.68300003 -0.020357953 4.2506707e-39 269 257
-0.059964001 0.68400002 -0.020387759 4.4364829e-39 270 257
-0.058764715 0.68400002 -0.020387759 4.4364829e-39 271 257
-0.057565439 0.68400002 -0.020387759 4.436836e-39 272 257
-0.056366164 0.68400002 -0.020387759 4.5290317e-39 273 257
-0.055328183 0.68599999 -0.020447372 4.5286785e-39 274 257
-0.053967599 0.68400002 -0.020387759 4.4364829e-39 275 257
-0.05276832 0.68400002 -0.020387759 4.1616911e-39 276 257
-0.051569041 0.68400002 -0.020387759 4.1616911e-39 277 257
-0.050369758 0.68400002 -0.020387759 4.0698486e-39 278 257
-0.049170479 0.68400002 -0.020387759 4.0698486e-39 279 257
-0.0479712 0.68400002 -0.020387759 4.6201483e-39 280 257
-0.046771921 0.68400002 -0.020387759 4.8970939e-39 281 257
-0.045572639 0.68400002 -0.020387759 5.0825558e-39 282 257
-0.044503104 0.68599999 -0.020447372 5.6357282e-39 283 257
-0.043300316 0.68599999 -0.020447372 6.551558e-39 284 257
-0.042158898 0.68699998 -0.020477179 5.2608192e-39 285 257
-0.040954359 0.68699998 -0.020477179 4.0658815e-39 286 257
-0.039749816 0.68699998 -0.020477179 3.6971004e-39 287 257
-0.038545277 0.68699998 -0.020477179 3.2379453e-39 288 257
-0.037340738 0.68699998 -0.020477179 3.2379453e-39 289 257
-0.036136195 0.68699998 -0.020477179 3.7000305e-39 290 257
-0.034931656 0.68699998 -0.020477179 5.0829664e-39 291 257
-0.033727121 0.68699998 -0.020477179 7.3813901e-39 292 257
-0.032569919 0.68800002 -0.020506985 8.0267595e-39 293 257
-0.031454802 0.69 -0.020566599 7.93168e-39 294 257
-0.030288832 0.69099998 -0.020596405 7.6550917e-39 295 257
-0.029161438 0.69300002 -0.020656019 7.1040858e-39 296 257
-0.027946379 0.69300002 -0.020656019 6.550912e-39 297 257
-0.026654173 0.69099998 -0.020596405 5.8119218e-39 298 257
-0.025442619 0.69099998 -0.020596405 5.0743568e-39 299 257
-0.024231065 0.69099998 -0.020596405 4.4282419e-39 300 257
-0.023019511 0.69099998 -0.020596405 2.4921336e-39 301 257
-0.021776399 0.69 -0.020566599 3.137838e-39 302 257
-0.020566599 0.69 -0.020566599 3.5066191e-39 303 257
-0.019356798 0.69 -0.020566599 2.4071099e-39 304 257
-0.018146999 0.69 -0.020566599 2.4071099e-39 305 257
-0.0169372 0.69 -0.020566599 2.4049603e-39 306 257
-0.015750192 0.69099998 -0.020596405 1.8517865e-39 307 257
-0.014580719 0.69300002 -0.020656019 1.8499984e-39 308 257
-0.013384946 0.69400001 -0.020685827 2.2191411e-39 309 257
-0.0122032 0.69599998 -0.020745439 2.4064036e-39 310 257
-0.010982879 0.69599998 -0.020745439 3.3283585e-39 311 257
-0.0097345067 0.69400001 -0.020685827 3.7907632e-39 312 257
-0.0085176928 0.69400001 -0.020685827 4.2517399e-39 313 257
-0.0073008798 0.69400001 -0.020685827 4.4354137e-39 314 257
-0.0060840664 0.69400001 -0.020685827 4.3432167e-39 315 257
-0.00486024 0.69300002 -0.020656019 4.8020438e-39 316 257
-0.0036451798 0.69300002 -0.020656019 4.8020438e-39 317 257
-0.0024231065 0.69099998 -0.020596405 4.6190917e-39 318 257
-0.0012115532 0.69099998 -0.020596405 4.7116461e-39 319 257
0 0.69099998 -0.020596405 4.7116433e-39 320 257
0.0012115532 0.69099998 -0.020596405 4.7116433e-39 321 257
0.0024231065 0.69099998 -0.020596405 4.8938737e-39 322 257
0.0036293997 0.69 -0.020566599 4.7091223e-39 323 257
0.0048391996 0.69 -0.020566599 4.7084063e-39 324 257
0.0060314666 0.68800002 -0.020506985 4.8924374e-39 325 257
0.0072377604 0.68800002 -0.020506985 4.7091223e-39 326 257
0.0084440531 0.68800002 -0.020506985 4.1559486e-39 327 257
0.0096363192 0.68699998 -0.020477179 4.4257209e-39 328 257
0.010840859 0.68699998 -0.020477179 3.7803515e-39 329 257
0.012045399 0.68699998 -0.020477179 3.5048605e-39 330 257
0.013249939 0.68699998 -0.020477179 3.5048605e-39 331 257
0.014454478 0.68699998 -0.020477179 3.4126606e-39 332 257
0.015659019 0.68699998 -0.020477179 3.5048577e-39 333 257
0.01686356 0.68699998 -0.020477179 3.5999231e-39 334 257
0.018068098 0.68699998 -0.020477179 3.7846745e-39 335 257
0.019244585 0.68599999 -0.020447372 3.7857409e-39 336 257
0.020447372 0.68599999 -0.020447372 3.8779366e-39 337 257
0.021650158 0.68599999 -0.020447372 3.9697622e-39 338 257
0.022786319 0.68400002 -0.020387759 3.7853724e-39 339 257
0.023950534 0.68300003 -0.020357953 3.6935285e-39 340 257
0.025111238 0.68199998 -0.020328145 3.4169416e-39 341 257
0.026307013 0.68199998 -0.020328145 3.141061e-39 342 257
0.027422134 0.68000001 -0.020268533 3.0488667e-39 343 257
0.028614398 0.68000001 -0.020268533 2.773719e-39 344 257
0.029806666 0.68000001 -0.020268533 2.6815247e-39 345 257
0.030998932 0.68000001 -0.020268533 2.6811744e-39 346 257
0.032191198 0.68000001 -0.020268533 2.5886201e-39 347 257
0.033383466 0.68000001 -0.020268533 2.312759e-39 348 257
0.034575731 0.68000001 -0.020268533 2.2205634e-39 349 257
0.035873197 0.68199998 -0.020328145 2.311687e-39 350 257
0.037068974 0.68199998 -0.020328145 2.4960769e-39 351 257
0.038264744 0.68199998 -0.020328145 2.4957238e-39 352 257
0.039460517 0.68199998 -0.020328145 2.3116926e-39 353 257
0.040656291 0.68199998 -0.020328145 2.677964e-39 354 257
0.041852064 0.68199998 -0.020328145 2.4939329e-39 355 257
0.043047838 0.68199998 -0.020328145 2.4946518e-39 356 257
0.044308487 0.68300003 -0.020357953 2.7715974e-39 357 257
0.045439381 0.68199998 -0.020328145 2.5893543e-39 358 257
0.046635158 0.68199998 -0.020328145 2.7733869e-39 359 257
0.047830928 0.68199998 -0.020328145 2.7737344e-39 360 257
0.048882935 0.68000001 -0.020268533 2.86593e-39 361 257
0.050075196 0.68000001 -0.020268533 2.7755168e-39 362 257
0.051267464 0.68000001 -0.020268533 2.6833212e-39 363 257
0.055005573 0.713 -0.021252153 3.0495842e-39 364 257
0.056255698 0.713 -0.021252153 3.0495842e-39 365 257
0.057505824 0.713 -0.021252153 2.6840401e-39 366 257
0.058508728 0.70999998 -0.021162732 2.9609857e-39 367 257
0.059753593 0.70999998 -0.021162732 3.2368607e-39 368 257
0.060826641 0.708 -0.021103119 3.4216107e-39 369 257
0.062068 0.708 -0.021103119 3.4216107e-39 370 257
0.063219935 0.70700002 -0.021073313 3.5138063e-39 371 257
0.064459547 0.70700002 -0.021073313 3.423403e-39 372 257
0.065606222 0.70599997 -0.021043506 3.6081544e-39 373 257
0.066844068 0.70599997 -0.021043506 3.6981752e-39 374 257
0.068274796 0.708 -0.021103119 3.8825664e-39 375 257
0.069516152 0.708 -0.021103119 7.9323793e-39 376 257
0.070757516 0.708 -0.021103119 1.4386073e-38 377 257
0.071998879 0.708 -0.021103119 1.8253663e-38 378 257
-0.09834446 0.70999998 -0.022407599 1.7515394e-38 241 258
-0.097099595 0.70999998 -0.022407599 1.4203888e-38 242 258
-0.095854729 0.70999998 -0.022407599 1.0239476e-38 243 258
-0.094343357 0.708 -0.022344479 6.4658868e-39 244 258
-0.093101993 0.708 -0.022344479 4.4375829e-39 245 258
-0.091860637 0.708 -0.022344479 3.9776516e-39 246 258
-0.090619281 0.708 -0.022344479 5.452783e-39 247 258
-0.089125432 0.70599997 -0.022281358 6.6444697e-39 248 258
-0.087887585 0.70599997 -0.022281358 6.1838517e-39 249 258
-0.086649731 0.70599997 -0.022281358 6.1841992e-39 250 258
-0.085169919 0.704 -0.022218239 6.7373716e-39 251 258
-0.083577886 0.70099998 -0.022123558 8.5805653e-39 252 258
-0.082348801 0.70099998 -0.022123558 8.856792e-39 253 258
-0.081004001 0.69999999 -0.022091998 8.580931e-39 254 258
-0.079776667 0.69999999 -0.022091998 8.580931e-39 255 258
-0.078661539 0.70099998 -0.022123558 8.7649706e-39 256 258
-0.077321991 0.69999999 -0.022091998 8.6727749e-39 257 258
-0.076094657 0.69999999 -0.022091998 8.4858655e-39 258 258
-0.074653424 0.69800001 -0.02202888 8.0248874e-39 259 258
-0.073429599 0.69800001 -0.02202888 6.9217824e-39 260 258
-0.072412662 0.69999999 -0.022091998 6.0920218e-39 261 258
-0.071287021 0.70099998 -0.022123558 4.7991305e-39 262 258
