# .PCD v.7 - Point Cloud Data file format
FIELDS x y z rgb imX imY
SIZE 4 4 4 4 4 4
TYPE F F F F F F
COUNT 1 1 1 1 1 1
WIDTH 838
HEIGHT 1
VIEWPOINT 0 0 0 1 0 0 0
POINTS 838
DATA ascii
-0.088613465 0.722 -0.091145277 7.2798422e-39 250 312
-0.08734756 0.722 -0.091145277 6.081299e-39 251 312
-0.085843205 0.72000003 -0.090892807 3.965131e-39 252 312
-0.084580801 0.72000003 -0.090892807 3.5041542e-39 253 312
-0.083202675 0.71899998 -0.090766557 2.3128193e-39 254 312
-0.081372194 0.71399999 -0.090135351 2.9581887e-39 255 312
-0.080120318 0.71399999 -0.090135351 4.8013782e-39 256 312
-0.078537062 0.71100003 -0.089756638 7.1984646e-39 257 312
-0.077290438 0.71100003 -0.089756638 9.0416527e-39 258 312
-0.076043822 0.71100003 -0.089756638 1.0701533e-38 259 312
-0.074797198 0.71100003 -0.089756638 1.2997413e-38 260 312
-0.073550582 0.71100003 -0.089756638 1.2813022e-38 261 312
-0.072202265 0.70999998 -0.089630395 1.2352753e-38 262 312
-0.070957392 0.70999998 -0.089630395 1.2075807e-38 263 312
-0.069712527 0.70999998 -0.089630395 1.2075804e-38 264 312
-0.068274796 0.708 -0.089377917 1.1799576e-38 265 312
-0.067033432 0.708 -0.089377917 1.1797778e-38 266 312
-0.065792084 0.708 -0.089377917 1.1705583e-38 267 312
-0.06455072 0.708 -0.089377917 1.216404e-38 268 312
-0.063309364 0.708 -0.089377917 1.2256236e-38 269 312
-0.062068 0.708 -0.089377917 1.2166191e-38 270 312
-0.060826641 0.708 -0.089377917 1.2166191e-38 271 312
-0.059585281 0.708 -0.089377917 1.2075074e-38 272 312
-0.058343921 0.708 -0.089377917 1.2075074e-38 273 312
-0.057102561 0.708 -0.089377917 1.1983242e-38 274 312
-0.055861197 0.708 -0.089377917 1.1707015e-38 275 312
-0.054619838 0.708 -0.089377917 1.1337875e-38 276 312
-0.053303085 0.70700002 -0.089251675 1.106129e-38 277 312
-0.05206348 0.70700002 -0.089251675 1.151832e-38 278 312
-0.050895758 0.708 -0.089377917 1.151832e-38 279 312
-0.049654398 0.708 -0.089377917 1.1335005e-38 280 312
-0.048413038 0.708 -0.089377917 1.1427201e-38 281 312
-0.047171678 0.708 -0.089377917 1.1245679e-38 282 312
-0.045930319 0.708 -0.089377917 1.1337875e-38 283 312
-0.044688959 0.708 -0.089377917 1.1613736e-38 284 312
-0.043447599 0.708 -0.089377917 1.1705933e-38 285 312
-0.042206239 0.708 -0.089377917 1.2257668e-38 286 312
-0.040964879 0.708 -0.089377917 1.2257668e-38 287 312
-0.039723519 0.708 -0.089377917 1.2073637e-38 288 312
-0.038482159 0.708 -0.089377917 1.1889605e-38 289 312
-0.0372408 0.708 -0.089377917 1.1889605e-38 290 312
-0.03599944 0.708 -0.089377917 1.1889605e-38 291 312
-0.034758076 0.708 -0.089377917 1.1614463e-38 292 312
-0.033516716 0.708 -0.089377917 1.1614463e-38 293 312
-0.03227536 0.708 -0.089377917 1.1797776e-38 294 312
-0.031121666 0.70999998 -0.089630395 1.189033e-38 295 312
-0.029876797 0.70999998 -0.089630395 1.1889605e-38 296 312
-0.028631933 0.70999998 -0.089630395 1.1705213e-38 297 312
-0.027309919 0.708 -0.089377917 1.1796329e-38 298 312
-0.026068559 0.708 -0.089377917 1.1796329e-38 299 312
-0.024792133 0.70700002 -0.089251675 1.2073276e-38 300 312
-0.023552528 0.70700002 -0.089251675 1.2257668e-38 301 312
-0.022312919 0.70700002 -0.089251675 1.1892122e-38 302 312
-0.021073313 0.70700002 -0.089251675 1.1799927e-38 303 312
-0.019805651 0.70599997 -0.089125432 1.1889608e-38 304 312
-0.018567799 0.70599997 -0.089125432 1.1797413e-38 305 312
-0.017329946 0.70599997 -0.089125432 1.1890327e-38 306 312
-0.016092092 0.70599997 -0.089125432 1.1798132e-38 307 312
-0.014854239 0.70599997 -0.089125432 1.1797057e-38 308 312
-0.013616386 0.70599997 -0.089125432 1.170486e-38 309 312
-0.012378532 0.70599997 -0.089125432 1.1889255e-38 310 312
-0.011140679 0.70599997 -0.089125432 1.2073286e-38 311 312
-0.0099028256 0.70599997 -0.089125432 1.1889974e-38 312 312
-0.0086649731 0.70599997 -0.089125432 1.1797778e-38 313 312
-0.0074271196 0.70599997 -0.089125432 1.2165116e-38 314 312
-0.0061892662 0.70599997 -0.089125432 1.2441702e-38 315 312
-0.0049514128 0.70599997 -0.089125432 1.2259103e-38 316 312
-0.0037345996 0.70999998 -0.089630395 1.2075072e-38 317 312
-0.0024792133 0.70700002 -0.089251675 1.2165835e-38 318 312
-0.0012378532 0.70599997 -0.089125432 1.2073639e-38 319 312
0 0.70599997 -0.089125432 1.1889255e-38 320 312
0.00124136 0.708 -0.089377917 1.2073286e-38 321 312
0.00248272 0.708 -0.089377917 1.2165122e-38 322 312
0.00372408 0.708 -0.089377917 1.2165122e-38 323 312
0.0049584266 0.70700002 -0.089251675 1.1797062e-38 324 312
0.0061980332 0.70700002 -0.089251675 1.1704507e-38 325 312
0.0074376399 0.70700002 -0.089251675 1.1522271e-38 326 312
0.008677247 0.70700002 -0.089251675 1.1522271e-38 327 312
0.0099308798 0.708 -0.089377917 1.152334e-38 328 312
0.01117224 0.708 -0.089377917 1.152334e-38 329 312
0.012396066 0.70700002 -0.089251675 1.1614819e-38 330 312
0.013635674 0.70700002 -0.089251675 1.1522265e-38 331 312
0.01489632 0.708 -0.089377917 1.1797057e-38 332 312
0.01613768 0.708 -0.089377917 1.1797057e-38 333 312
0.017379038 0.708 -0.089377917 1.1889611e-38 334 312
0.0186204 0.708 -0.089377917 1.2073642e-38 335 312
0.01986176 0.708 -0.089377917 1.2257312e-38 336 312
0.021103119 0.708 -0.089377917 1.2441702e-38 337 312
0.022344479 0.708 -0.089377917 1.2533178e-38 338 312
0.023585839 0.708 -0.089377917 1.2440983e-38 339 312
0.024827199 0.708 -0.089377917 1.1983239e-38 340 312
0.026068559 0.708 -0.089377917 1.2075793e-38 341 312
0.027309919 0.708 -0.089377917 1.2258031e-38 342 312
0.02855128 0.708 -0.089377917 1.2258031e-38 343 312
0.029876797 0.70999998 -0.089630395 1.2258036e-38 344 312
0.031034 0.708 -0.089377917 1.2258036e-38 345 312
0.03227536 0.708 -0.089377917 1.2533544e-38 346 312
0.033611398 0.70999998 -0.089630395 1.2257317e-38 347 312
0.034856264 0.70999998 -0.089630395 1.2258036e-38 348 312
0.036101133 0.70999998 -0.089630395 1.2165482e-38 349 312
0.037345998 0.70999998 -0.089630395 1.2442426e-38 350 312
0.038590867 0.70999998 -0.089630395 1.2719012e-38 351 312
0.039835732 0.70999998 -0.089630395 1.2814079e-38 352 312
0.041080594 0.70999998 -0.089630395 1.3459448e-38 353 312
0.042325463 0.70999998 -0.089630395 1.3180713e-38 354 312
0.043570329 0.70999998 -0.089630395 1.0691431e-38 355 312
0.044815198 0.70999998 -0.089630395 6.9142995e-39 356 312
0.046060063 0.70999998 -0.089630395 4.7938e-39 357 312
0.047304932 0.70999998 -0.089630395 7.7451364e-39 358 312
0.048549797 0.70999998 -0.089630395 1.0050027e-38 359 312
0.049794663 0.70999998 -0.089630395 1.1522636e-38 360 312
0.051039528 0.70999998 -0.089630395 1.0877267e-38 361 312
0.052358042 0.71100003 -0.089756638 9.1251967e-39 362 312
0.053604662 0.71100003 -0.089756638 6.4515235e-39 363 312
0.055005573 0.713 -0.090009116 2.8666965e-39 364 312
0.0563346 0.71399999 -0.090135351 3.9730441e-39 365 312
0.057586476 0.71399999 -0.090135351 8.0174199e-39 366 312
0.059003171 0.71600002 -0.090387844 9.8613325e-39 367 312
0.06025856 0.71600002 -0.090387844 9.3128152e-39 368 312
0.061513945 0.71600002 -0.090387844 9.865989e-39 369 312
0.062769331 0.71600002 -0.090387844 1.0785054e-38 370 312
0.064024724 0.71600002 -0.090387844 1.1245674e-38 371 312
0.06528011 0.71600002 -0.090387844 1.1432223e-38 372 312
0.066349633 0.71399999 -0.090135351 1.1800645e-38 373 312
0.067601517 0.71399999 -0.090135351 1.2259836e-38 374 312
0.068756968 0.713 -0.090009116 1.2813009e-38 375 312
0.070007093 0.713 -0.090009116 1.2814823e-38 376 312
0.071257219 0.713 -0.090009116 1.1800672e-38 377 312
0.072507344 0.713 -0.090009116 1.0418109e-38 378 312
0.073860914 0.71399999 -0.090135351 8.7585876e-39 379 312
0.075323202 0.71600002 -0.090387844 7.1973898e-39 380 312
0.076578587 0.71600002 -0.090387844 7.1051942e-39 381 312
-0.090003856 0.72299999 -0.092539176 9.7712878e-39 249 313
-0.088613465 0.722 -0.092411183 9.8598737e-39 250 313
-0.08734756 0.722 -0.092411183 8.8457232e-39 251 313
-0.085843205 0.72000003 -0.092155196 6.9128548e-39 252 313
-0.084580801 0.72000003 -0.092155196 5.2533334e-39 253 313
-0.083202675 0.71899998 -0.092027202 3.3226202e-39 254 313
-0.081372194 0.71399999 -0.091387235 2.3084683e-39 255 313
-0.079783678 0.71100003 -0.091003262 2.035847e-39 256 313
-0.078537062 0.71100003 -0.091003262 3.7872053e-39 257 313
-0.077290438 0.71100003 -0.091003262 5.9999242e-39 258 313
-0.076043822 0.71100003 -0.091003262 7.9356737e-39 259 313
-0.074691996 0.70999998 -0.090875261 1.1154249e-38 260 313
-0.073447131 0.70999998 -0.090875261 1.2075845e-38 261 313
-0.072202265 0.70999998 -0.090875261 1.2354214e-38 262 313
-0.070957392 0.70999998 -0.090875261 1.2262019e-38 263 313
-0.069516152 0.708 -0.090619281 1.1986488e-38 264 313
-0.068274796 0.708 -0.090619281 1.1617347e-38 265 313
-0.066938758 0.70700002 -0.090491287 1.1983595e-38 266 313
-0.065699153 0.70700002 -0.090491287 1.1707368e-38 267 313
-0.064459547 0.70700002 -0.090491287 1.1705216e-38 268 313
-0.063219935 0.70700002 -0.090491287 1.1889608e-38 269 313
-0.061980337 0.70700002 -0.090491287 1.1615182e-38 270 313
-0.060740728 0.70700002 -0.090491287 1.1799573e-38 271 313
-0.059501119 0.70700002 -0.090491287 1.1892128e-38 272 313
-0.05826151 0.70700002 -0.090491287 1.1892128e-38 273 313
-0.057021905 0.70700002 -0.090491287 1.1983239e-38 274 313
-0.055782299 0.70700002 -0.090491287 1.1983239e-38 275 313
-0.054542694 0.70700002 -0.090491287 1.1797763e-38 276 313
-0.053303085 0.70700002 -0.090491287 1.1520816e-38 277 313
-0.05206348 0.70700002 -0.090491287 1.15201e-38 278 313
-0.050823875 0.70700002 -0.090491287 1.15201e-38 279 313
-0.049654398 0.708 -0.090619281 1.1336074e-38 280 313
-0.048344657 0.70700002 -0.090491287 1.142827e-38 281 313
-0.047105055 0.70700002 -0.090491287 1.1337153e-38 282 313
-0.045865446 0.70700002 -0.090491287 1.1429349e-38 283 313
-0.044625837 0.70700002 -0.090491287 1.1705213e-38 284 313
-0.043386232 0.70700002 -0.090491287 1.1889605e-38 285 313
-0.042146627 0.70700002 -0.090491287 1.2073637e-38 286 313
-0.040849157 0.70599997 -0.090363286 1.2166191e-38 287 313
-0.039611302 0.70599997 -0.090363286 1.2165467e-38 288 313
-0.038427804 0.70700002 -0.090491287 1.2073271e-38 289 313
-0.037188202 0.70700002 -0.090491287 1.1889961e-38 290 313
-0.035897743 0.70599997 -0.090363286 1.2073993e-38 291 313
-0.034659892 0.70599997 -0.090363286 1.2165116e-38 292 313
-0.033469379 0.70700002 -0.090491287 1.2165116e-38 293 313
-0.032229774 0.70700002 -0.090491287 1.1890327e-38 294 313
-0.030990168 0.70700002 -0.090491287 1.1798132e-38 295 313
-0.02979264 0.708 -0.090619281 1.1797413e-38 296 313
-0.028510952 0.70700002 -0.090491287 1.1705216e-38 297 313
-0.027271347 0.70700002 -0.090491287 1.1612661e-38 298 313
-0.02603174 0.70700002 -0.090491287 1.1797413e-38 299 313
-0.024757065 0.70599997 -0.090363286 1.1614819e-38 300 313
-0.023519212 0.70599997 -0.090363286 1.1983242e-38 301 313
-0.022281358 0.70599997 -0.090363286 1.207579e-38 302 313
-0.020983893 0.704 -0.090107299 1.1983595e-38 303 313
-0.019749546 0.704 -0.090107299 1.207399e-38 304 313
-0.018515198 0.704 -0.090107299 1.207399e-38 305 313
-0.017280852 0.704 -0.090107299 1.1890324e-38 306 313
-0.016046507 0.704 -0.090107299 1.1798129e-38 307 313
-0.014812159 0.704 -0.090107299 1.2073639e-38 308 313
-0.013577812 0.704 -0.090107299 1.1889608e-38 309 313
-0.012343466 0.704 -0.090107299 1.1614463e-38 310 313
-0.011109119 0.704 -0.090107299 1.1706659e-38 311 313
-0.0098747732 0.704 -0.090107299 1.1889611e-38 312 313
-0.0086404262 0.704 -0.090107299 1.2073642e-38 313 313
-0.0074060797 0.704 -0.090107299 1.2073639e-38 314 313
-0.0061629666 0.70300001 -0.089979313 1.2165835e-38 315 313
-0.0049303733 0.70300001 -0.089979313 1.2348431e-38 316 313
-0.0036977797 0.70300001 -0.089979313 1.2440627e-38 317 313
-0.0024686933 0.704 -0.090107299 1.2165122e-38 318 313
-0.0012343467 0.704 -0.090107299 1.2165122e-38 319 313
0 0.704 -0.090107299 1.1889255e-38 320 313
0.0012343467 0.704 -0.090107299 1.2073286e-38 321 313
0.0024757064 0.70599997 -0.090363286 1.1889977e-38 322 313
0.0037135598 0.70599997 -0.090363286 1.1797781e-38 323 313
0.0049514128 0.70599997 -0.090363286 1.1705227e-38 324 313
0.0061892662 0.70599997 -0.090363286 1.1428999e-38 325 313
0.0074271196 0.70599997 -0.090363286 1.1246756e-38 326 313
0.0086649731 0.70599997 -0.090363286 1.1522984e-38 327 313
0.0099168532 0.70700002 -0.090491287 1.1889959e-38 328 313
0.011156459 0.70700002 -0.090491287 1.207399e-38 329 313
0.012378532 0.70599997 -0.090363286 1.1798485e-38 330 313
0.013616386 0.70599997 -0.090363286 1.1798485e-38 331 313
0.01487528 0.70700002 -0.090491287 1.2073274e-38 332 313
0.016114887 0.70700002 -0.090491287 1.2073274e-38 333 313
0.017354494 0.70700002 -0.090491287 1.2165472e-38 334 313
0.018594101 0.70700002 -0.090491287 1.2257668e-38 335 313
0.019805651 0.70599997 -0.090363286 1.2258031e-38 336 313
0.021043506 0.70599997 -0.090363286 1.2258031e-38 337 313
0.022281358 0.70599997 -0.090363286 1.2166191e-38 338 313
0.023552528 0.70700002 -0.090491287 1.2350582e-38 339 313
0.024757065 0.70599997 -0.090363286 1.2625727e-38 340 313
0.025994917 0.70599997 -0.090363286 1.2625727e-38 341 313
0.027271347 0.70700002 -0.090491287 1.2625374e-38 342 313
0.02855128 0.708 -0.090619281 1.2533178e-38 343 313
0.02979264 0.708 -0.090619281 1.2258036e-38 344 313
0.031034 0.708 -0.090619281 1.2258036e-38 345 313
0.03227536 0.708 -0.090619281 1.2533897e-38 346 313
0.033469379 0.70700002 -0.090491287 1.2533897e-38 347 313
0.034708988 0.70700002 -0.090491287 1.2440983e-38 348 313
0.035948593 0.70700002 -0.090491287 1.2533178e-38 349 313
0.037188202 0.70700002 -0.090491287 1.2535331e-38 350 313
0.038427804 0.70700002 -0.090491287 1.3088505e-38 351 313
0.039723519 0.708 -0.090619281 1.3092467e-38 352 313
0.040964879 0.708 -0.090619281 1.2908075e-38 353 313
0.042206239 0.708 -0.090619281 1.1246775e-38 354 313
0.043447599 0.708 -0.090619281 7.1898074e-39 355 313
0.044688959 0.708 -0.090619281 5.1654538e-39 356 313
0.045930319 0.708 -0.090619281 6.4561926e-39 357 313
0.047171678 0.708 -0.090619281 1.0050027e-38 358 313
0.048413038 0.708 -0.090619281 1.1340766e-38 359 313
0.049654398 0.708 -0.090619281 1.0601769e-38 360 313
0.051039528 0.70999998 -0.090875261 9.4032256e-39 361 313
0.052284397 0.70999998 -0.090875261 5.904095e-39 362 313
0.053604662 0.71100003 -0.091003262 4.2445737e-39 363 313
0.054851279 0.71100003 -0.091003262 5.1632902e-39 364 313
0.056255698 0.713 -0.091259241 7.4678208e-39 365 313
0.057505824 0.713 -0.091259241 9.2163036e-39 366 313
0.058838356 0.71399999 -0.091387235 9.9538686e-39 367 313
0.060090236 0.71399999 -0.091387235 1.004858e-38 368 313
0.061342116 0.71399999 -0.091387235 1.0786503e-38 369 313
0.062769331 0.71600002 -0.091643229 1.1705213e-38 370 313
0.064024724 0.71600002 -0.091643229 1.2073637e-38 371 313
0.06528011 0.71600002 -0.091643229 1.1983239e-38 372 313
0.066256717 0.713 -0.091259241 1.2075793e-38 373 313
0.067506835 0.713 -0.091259241 1.2444593e-38 374 313
0.068756968 0.713 -0.091259241 1.2905571e-38 375 313
0.070007093 0.713 -0.091259241 1.2539327e-38 376 313
0.071257219 0.713 -0.091259241 1.0787612e-38 377 313
0.072507344 0.713 -0.091259241 9.1273828e-39 378 313
0.073860914 0.71399999 -0.091387235 8.0210366e-39 379 313
0.075112797 0.71399999 -0.091387235 6.7364173e-39 380 313
-0.084580801 0.72000003 -0.0934176 9.9531624e-39 253 314
-0.083202675 0.71899998 -0.093287848 8.5723761e-39 254 314
-0.081372194 0.71399999 -0.092639111 6.7288236e-39 255 314
-0.079783678 0.71100003 -0.092249878 4.9788975e-39 256 314
-0.078537062 0.71100003 -0.092249878 4.5179208e-39 257 314
-0.077290438 0.71100003 -0.092249878 3.3226328e-39 258 314
-0.076043822 0.71100003 -0.092249878 3.4148284e-39 259 314
-0.074691996 0.70999998 -0.092120126 4.1534949e-39 260 314
-0.073447131 0.70999998 -0.092120126 5.9048517e-39 261 314
-0.072202265 0.70999998 -0.092120126 8.1197048e-39 262 314
-0.070957392 0.70999998 -0.092120126 1.0055813e-38 263 314
-0.069516152 0.708 -0.091860637 1.1803545e-38 264 314
-0.068274796 0.708 -0.091860637 1.2079773e-38 265 314
-0.066938758 0.70700002 -0.091730893 1.2079755e-38 266 314
-0.065699153 0.70700002 -0.091730893 1.1434385e-38 267 314
-0.064459547 0.70700002 -0.091730893 1.1431873e-38 268 314
-0.063130513 0.70599997 -0.091601141 1.1247123e-38 269 314
-0.061892662 0.70599997 -0.091601141 1.1890696e-38 270 314
-0.060654808 0.70599997 -0.091601141 1.2075087e-38 271 314
-0.059248637 0.704 -0.091341652 1.2074371e-38 272 314
-0.058014292 0.704 -0.091341652 1.1889621e-38 273 314
-0.056941248 0.70599997 -0.091601141 1.1982172e-38 274 314
-0.055703394 0.70599997 -0.091601141 1.1982172e-38 275 314
-0.054311249 0.704 -0.091341652 1.1614814e-38 276 314
-0.053076904 0.704 -0.091341652 1.1430421e-38 277 314
-0.051842559 0.704 -0.091341652 1.1338578e-38 278 314
-0.050608214 0.704 -0.091341652 1.1430774e-38 279 314
-0.049584266 0.70700002 -0.091730893 1.1338225e-38 280 314
-0.048276275 0.70599997 -0.091601141 1.1061999e-38 281 314
-0.046905171 0.704 -0.091341652 1.1337151e-38 282 314
-0.045670826 0.704 -0.091341652 1.1429705e-38 283 314
-0.044562716 0.70599997 -0.091601141 1.1981078e-38 284 314
-0.043202132 0.704 -0.091341652 1.2165469e-38 285 314
-0.041967787 0.704 -0.091341652 1.2073637e-38 286 314
-0.040733438 0.704 -0.091341652 1.2166191e-38 287 314
-0.039499093 0.704 -0.091341652 1.2073637e-38 288 314
-0.038264744 0.704 -0.091341652 1.2073637e-38 289 314
-0.037030395 0.704 -0.091341652 1.189068e-38 290 314
-0.035796054 0.704 -0.091341652 1.1982876e-38 291 314
-0.034561705 0.704 -0.091341652 1.2166188e-38 292 314
-0.033422034 0.70599997 -0.091601141 1.2258384e-38 293 314
-0.032184184 0.70599997 -0.091601141 1.2074718e-38 294 314
-0.030946331 0.70599997 -0.091601141 1.1890327e-38 295 314
-0.029624319 0.704 -0.091341652 1.1705583e-38 296 314
-0.028389972 0.704 -0.091341652 1.1428996e-38 297 314
-0.027232772 0.70599997 -0.091601141 1.1888172e-38 298 314
-0.025994917 0.70599997 -0.091601141 1.1980728e-38 299 314
-0.024686933 0.704 -0.091341652 1.1891046e-38 300 314
-0.023452586 0.704 -0.091341652 1.2075437e-38 301 314
-0.022218239 0.704 -0.091341652 1.2167634e-38 302 314
-0.020983893 0.704 -0.091341652 1.2075437e-38 303 314
-0.019721493 0.70300001 -0.0912119 1.1983242e-38 304 314
-0.018488899 0.70300001 -0.0912119 1.1891046e-38 305 314
-0.017256306 0.70300001 -0.0912119 1.1982523e-38 306 314
-0.016023712 0.70300001 -0.0912119 1.1982523e-38 307 314
-0.014812159 0.704 -0.091341652 1.1982523e-38 308 314
-0.013577812 0.704 -0.091341652 1.1890327e-38 309 314
-0.012343466 0.704 -0.091341652 1.1889974e-38 310 314
-0.01109334 0.70300001 -0.0912119 1.1889974e-38 311 314
-0.0098607466 0.70300001 -0.0912119 1.2073642e-38 312 314
-0.0086281532 0.70300001 -0.0912119 1.2073642e-38 313 314
-0.0073955595 0.70300001 -0.0912119 1.2165835e-38 314 314
-0.0061454331 0.70099998 -0.090952404 1.2165835e-38 315 314
-0.0049163462 0.70099998 -0.090952404 1.2441702e-38 316 314
-0.0036872597 0.70099998 -0.090952404 1.2257312e-38 317 314
-0.0024581731 0.70099998 -0.090952404 1.198252e-38 318 314
-0.0012325933 0.70300001 -0.0912119 1.1890324e-38 319 314
0 0.70300001 -0.0912119 1.1707012e-38 320 314
0.0012325933 0.70300001 -0.0912119 1.1522621e-38 321 314
0.0024686933 0.704 -0.091341652 1.2072923e-38 322 314
0.0037030398 0.704 -0.091341652 1.2072923e-38 323 314
0.0049373866 0.704 -0.091341652 1.1613386e-38 324 314
0.0061717331 0.704 -0.091341652 1.1705583e-38 325 314
0.0074060797 0.704 -0.091341652 1.1797776e-38 326 314
0.0086404262 0.704 -0.091341652 1.189033e-38 327 314
0.0098747732 0.704 -0.091341652 1.2073637e-38 328 314
0.011109119 0.704 -0.091341652 1.2073637e-38 329 314
0.012343466 0.704 -0.091341652 1.1889605e-38 330 314
0.013577812 0.704 -0.091341652 1.1889605e-38 331 314
0.014812159 0.704 -0.091341652 1.2164393e-38 332 314
0.016092092 0.70599997 -0.091601141 1.2348784e-38 333 314
0.017280852 0.704 -0.091341652 1.2073637e-38 334 314
0.018515198 0.704 -0.091341652 1.2166191e-38 335 314
0.019749546 0.704 -0.091341652 1.2441702e-38 336 314
0.020983893 0.704 -0.091341652 1.2441702e-38 337 314
0.022281358 0.70599997 -0.091601141 1.2441699e-38 338 314
0.023519212 0.70599997 -0.091601141 1.2533894e-38 339 314
0.024757065 0.70599997 -0.091601141 1.2625377e-38 340 314
0.025994917 0.70599997 -0.091601141 1.2809409e-38 341 314
0.027232772 0.70599997 -0.091601141 1.2441349e-38 342 314
0.028510952 0.70700002 -0.091730893 1.2257317e-38 343 314
0.029708479 0.70599997 -0.091601141 1.2350229e-38 344 314
0.030946331 0.70599997 -0.091601141 1.2534981e-38 345 314
0.032184184 0.70599997 -0.091601141 1.2534975e-38 346 314
0.033422034 0.70599997 -0.091601141 1.2534975e-38 347 314
0.034659892 0.70599997 -0.091601141 1.2353098e-38 348 314
0.035897743 0.70599997 -0.091601141 1.2445652e-38 349 314
0.037135597 0.70599997 -0.091601141 1.2723678e-38 350 314
0.038373452 0.70599997 -0.091601141 1.3276852e-38 351 314
0.039667413 0.70700002 -0.091730893 1.2723328e-38 352 314
0.040907022 0.70700002 -0.091730893 9.404285e-39 353 314
0.042146627 0.70700002 -0.091730893 5.3527219e-39 354 314
0.043386232 0.70700002 -0.091730893 3.0474724e-39 355 314
0.044625837 0.70700002 -0.091730893 7.1022809e-39 356 314
0.045865446 0.70700002 -0.091730893 9.7759541e-39 357 314
0.047171678 0.708 -0.091860637 1.1522636e-38 358 314
0.048413038 0.708 -0.091860637 1.1430441e-38 359 314
0.049654398 0.708 -0.091860637 9.9585503e-39 360 314
0.050895758 0.708 -0.091860637 7.2848771e-39 361 314
0.052284397 0.70999998 -0.092120126 2.7716142e-39 362 314
0.053529263 0.70999998 -0.092120126 3.5091793e-39 363 314
0.054851279 0.71100003 -0.092249878 7.7357785e-39 364 314
0.056097899 0.71100003 -0.092249878 1.0778234e-38 365 314
0.057344519 0.71100003 -0.092249878 1.0600304e-38 366 314
0.058591139 0.71100003 -0.092249878 1.0231882e-38 367 314
0.059837762 0.71100003 -0.092249878 1.1059841e-38 368 314
0.061084379 0.71100003 -0.092249878 1.1520819e-38 369 314
0.062331002 0.71100003 -0.092249878 1.1522621e-38 370 314
0.063577622 0.71100003 -0.092249878 1.1707012e-38 371 314
0.065006584 0.713 -0.092509374 1.2165119e-38 372 314
0.066070862 0.71100003 -0.092249878 1.2718293e-38 373 314
0.067317478 0.71100003 -0.092249878 1.2997769e-38 374 314
0.068564095 0.71100003 -0.092249878 1.3274357e-38 375 314
0.069810718 0.71100003 -0.092249878 1.1342583e-38 376 314
0.071057342 0.71100003 -0.092249878 9.3142796e-39 377 314
0.072507344 0.713 -0.092509374 8.848282e-39 378 314
0.07375747 0.713 -0.092509374 8.2029125e-39 379 314
-0.083318397 0.72000003 -0.094680004 1.0602122e-38 254 315
-0.081714094 0.71700001 -0.094285503 9.7727214e-39 255 315
-0.079783678 0.71100003 -0.093496501 8.1149755e-39 256 315
-0.078537062 0.71100003 -0.093496501 6.0866716e-39 257 315
-0.077290438 0.71100003 -0.093496501 4.8852544e-39 258 315
-0.076043822 0.71100003 -0.093496501 3.9632981e-39 259 315
-0.074797198 0.71100003 -0.093496501 2.9520552e-39 260 315
-0.073447131 0.70999998 -0.093364999 4.242794e-39 261 315
-0.072202265 0.70999998 -0.093364999 4.889625e-39 262 315
-0.070957392 0.70999998 -0.093364999 6.4573094e-39 263 315
-0.069516152 0.708 -0.093101993 8.395919e-39 264 315
-0.068274796 0.708 -0.093101993 1.0239832e-38 265 315
-0.066938758 0.70700002 -0.092970498 1.2445662e-38 266 315
-0.065699153 0.70700002 -0.092970498 1.2445662e-38 267 315
-0.064459547 0.70700002 -0.092970498 1.2258031e-38 268 315
-0.063130513 0.70599997 -0.092838995 1.2165835e-38 269 315
-0.061892662 0.70599997 -0.092838995 1.1891772e-38 270 315
-0.060482983 0.704 -0.092575997 1.1799576e-38 271 315
-0.059248637 0.704 -0.092575997 1.2074015e-38 272 315
-0.058014292 0.704 -0.092575997 1.1705232e-38 273 315
-0.056779943 0.704 -0.092575997 1.1430441e-38 274 315
-0.055545598 0.704 -0.092575997 1.1522636e-38 275 315
-0.054234106 0.70300001 -0.092444502 1.1797766e-38 276 315
-0.053001512 0.70300001 -0.092444502 1.1797766e-38 277 315
-0.051768921 0.70300001 -0.092444502 1.1706639e-38 278 315
-0.050608214 0.704 -0.092575997 1.1706639e-38 279 315
-0.049373865 0.704 -0.092575997 1.1796683e-38 280 315
-0.048139516 0.704 -0.092575997 1.1796683e-38 281 315
-0.046838548 0.70300001 -0.092444502 1.170521e-38 282 315
-0.04560595 0.70300001 -0.092444502 1.1889961e-38 283 315
-0.04437336 0.70300001 -0.092444502 1.2165469e-38 284 315
-0.043140765 0.70300001 -0.092444502 1.2257665e-38 285 315
-0.041908171 0.70300001 -0.092444502 1.2442052e-38 286 315
-0.040675577 0.70300001 -0.092444502 1.2258021e-38 287 315
-0.039442986 0.70300001 -0.092444502 1.2166185e-38 288 315
-0.038210396 0.70300001 -0.092444502 1.225874e-38 289 315
-0.036977798 0.70300001 -0.092444502 1.225874e-38 290 315
-0.035745207 0.70300001 -0.092444502 1.2350935e-38 291 315
-0.034512613 0.70300001 -0.092444502 1.2259459e-38 292 315
-0.03332736 0.704 -0.092575997 1.2259459e-38 293 315
-0.032093015 0.704 -0.092575997 1.2073639e-38 294 315
-0.030858666 0.704 -0.092575997 1.1797413e-38 295 315
-0.029624319 0.704 -0.092575997 1.1797062e-38 296 315
-0.028389972 0.704 -0.092575997 1.1704507e-38 297 315
-0.027155625 0.704 -0.092575997 1.1797413e-38 298 315
-0.02592128 0.704 -0.092575997 1.2165835e-38 299 315
-0.024651866 0.70300001 -0.092444502 1.2259105e-38 300 315
-0.023419274 0.70300001 -0.092444502 1.2351303e-38 301 315
-0.022123558 0.70099998 -0.092181489 1.2442779e-38 302 315
-0.020894472 0.70099998 -0.092181489 1.2534975e-38 303 315
-0.019665385 0.70099998 -0.092181489 1.2626445e-38 304 315
-0.018436298 0.70099998 -0.092181489 1.2626445e-38 305 315
-0.017207211 0.70099998 -0.092181489 1.244313e-38 306 315
-0.016023712 0.70300001 -0.092444502 1.244313e-38 307 315
-0.014791119 0.70300001 -0.092444502 1.2441696e-38 308 315
-0.013558527 0.70300001 -0.092444502 1.2257665e-38 309 315
-0.012325933 0.70300001 -0.092444502 1.2165116e-38 310 315
-0.01109334 0.70300001 -0.092444502 1.2257312e-38 311 315
-0.0098326923 0.70099998 -0.092181489 1.1982523e-38 312 315
-0.0086036054 0.70099998 -0.092181489 1.2074718e-38 313 315
-0.0073745195 0.70099998 -0.092181489 1.2258031e-38 314 315
-0.0061366665 0.69999999 -0.092049994 1.2350585e-38 315 315
-0.0049093333 0.69999999 -0.092049994 1.2258387e-38 316 315
-0.0036819996 0.69999999 -0.092049994 1.2350582e-38 317 315
-0.0024546667 0.69999999 -0.092049994 1.2258384e-38 318 315
-0.0012273333 0.69999999 -0.092049994 1.2166188e-38 319 315
0 0.69999999 -0.092049994 1.1798485e-38 320 315
0.0012273333 0.69999999 -0.092049994 1.1798485e-38 321 315
0.0024581731 0.70099998 -0.092181489 1.1888172e-38 322 315
0.0036872597 0.70099998 -0.092181489 1.1888172e-38 323 315
0.0049163462 0.70099998 -0.092181489 1.1888175e-38 324 315
0.0061629666 0.70300001 -0.092444502 1.2072567e-38 325 315
0.0073955595 0.70300001 -0.092444502 1.2166191e-38 326 315
0.0086281532 0.70300001 -0.092444502 1.2166191e-38 327 315
0.0098607466 0.70300001 -0.092444502 1.2257668e-38 328 315
0.01109334 0.70300001 -0.092444502 1.2165472e-38 329 315
0.012325933 0.70300001 -0.092444502 1.2072921e-38 330 315
0.013577812 0.704 -0.092575997 1.2072921e-38 331 315
0.014812159 0.704 -0.092575997 1.2165835e-38 332 315
0.016023712 0.70300001 -0.092444502 1.2165835e-38 333 315
0.017256306 0.70300001 -0.092444502 1.2258387e-38 334 315
0.018488899 0.70300001 -0.092444502 1.2350582e-38 335 315
0.019749546 0.704 -0.092575997 1.2625727e-38 336 315
0.020983893 0.704 -0.092575997 1.2625727e-38 337 315
0.022218239 0.704 -0.092575997 1.2809763e-38 338 315
0.023452586 0.704 -0.092575997 1.2809763e-38 339 315
0.024686933 0.704 -0.092575997 1.2809407e-38 340 315
0.02592128 0.704 -0.092575997 1.2901602e-38 341 315
0.027155625 0.704 -0.092575997 1.2626092e-38 342 315
0.028389972 0.704 -0.092575997 1.2718287e-38 343 315
0.029708479 0.70599997 -0.092838995 1.2903037e-38 344 315
0.030946331 0.70599997 -0.092838995 1.3179264e-38 345 315
0.032184184 0.70599997 -0.092838995 1.2903753e-38 346 315
0.03332736 0.704 -0.092575997 1.2903753e-38 347 315
0.034561705 0.704 -0.092575997 1.2813713e-38 348 315
0.035796054 0.704 -0.092575997 1.2998104e-38 349 315
0.037030395 0.704 -0.092575997 1.281552e-38 350 315
0.038264744 0.704 -0.092575997 1.2077955e-38 351 315
0.039611302 0.70599997 -0.092838995 1.0143652e-38 352 315
0.040849157 0.70599997 -0.092838995 5.7182618e-39 353 315
0.042087011 0.70599997 -0.092838995 4.6162233e-39 354 315
0.043324865 0.70599997 -0.092838995 6.5523315e-39 355 315
0.044562716 0.70599997 -0.092838995 9.9571028e-39 356 315
0.04580057 0.70599997 -0.092838995 1.1340037e-38 357 315
0.047105055 0.70700002 -0.092970498 1.106346e-38 358 315
0.048344657 0.70700002 -0.092970498 1.0418091e-38 359 315
0.049584266 0.70700002 -0.092970498 7.8380537e-39 360 315
0.050823875 0.70700002 -0.092970498 6.0863367e-39 361 315
0.052137118 0.708 -0.093101993 4.5182893e-39 362 315
0.053529263 0.70999998 -0.093364999 5.8090281e-39 363 315
0.054774132 0.70999998 -0.093364999 8.5684104e-39 364 315
0.056018997 0.70999998 -0.093364999 1.0227932e-38 365 315
0.057344519 0.71100003 -0.093496501 1.0232601e-38 366 315
0.058591139 0.71100003 -0.093496501 1.0509188e-38 367 315
0.059753593 0.70999998 -0.093364999 1.087797e-38 368 315
0.060998458 0.70999998 -0.093364999 1.1154557e-38 369 315
0.062331002 0.71100003 -0.093496501 1.1705216e-38 370 315
0.063577622 0.71100003 -0.093496501 1.1705216e-38 371 315
0.064824238 0.71100003 -0.093496501 1.2443151e-38 372 315
0.066070862 0.71100003 -0.093496501 1.2995966e-38 373 315
0.067317478 0.71100003 -0.093496501 1.2538956e-38 374 315
0.068564095 0.71100003 -0.093496501 1.1986141e-38 375 315
0.069810718 0.71100003 -0.093496501 9.9600175e-39 376 315
0.071057342 0.71100003 -0.093496501 8.2083019e-39 377 315
0.072507344 0.713 -0.093759492 6.9175785e-39 378 315
-0.080456957 0.71700001 -0.095542639 1.1801378e-38 256 316
-0.078868434 0.71399999 -0.095142879 1.0694671e-38 257 316
-0.077507854 0.713 -0.095009625 9.7698249e-39 258 316
-0.076257721 0.713 -0.095009625 8.0181079e-39 259 316
-0.074797198 0.71100003 -0.094743125 6.5419058e-39 260 316
-0.073550582 0.71100003 -0.094743125 5.5277525e-39 261 316
-0.072202265 0.70999998 -0.094609864 3.0417327e-39 262 316
-0.070957392 0.70999998 -0.094609864 3.1339297e-39 263 316
-0.069516152 0.708 -0.094343357 3.5124415e-39 264 316
-0.068274796 0.708 -0.094343357 5.9091691e-39 265 316
-0.066938758 0.70700002 -0.094210111 9.6798223e-39 266 316
-0.065699153 0.70700002 -0.094210111 1.1062757e-38 267 316
-0.064368367 0.70599997 -0.09407685 1.2258046e-38 268 316
-0.063130513 0.70599997 -0.09407685 1.2442797e-38 269 316
-0.061717331 0.704 -0.093810342 1.2077608e-38 270 316
-0.060482983 0.704 -0.093810342 1.1708827e-38 271 316
-0.059164476 0.70300001 -0.093677096 1.1982535e-38 272 316
-0.057931885 0.70300001 -0.093677096 1.1706309e-38 273 316
-0.056699295 0.70300001 -0.093677096 1.1797778e-38 274 316
-0.0554667 0.70300001 -0.093677096 1.1797778e-38 275 316
-0.054234106 0.70300001 -0.093677096 1.2073993e-38 276 316
-0.052850723 0.70099998 -0.093410581 1.2073993e-38 277 316
-0.051621638 0.70099998 -0.093410581 1.1890675e-38 278 316
-0.050392549 0.70099998 -0.093410581 1.1798479e-38 279 316
-0.049303733 0.70300001 -0.093677096 1.2073627e-38 280 316
-0.048071139 0.70300001 -0.093677096 1.2073627e-38 281 316
-0.046838548 0.70300001 -0.093677096 1.1890677e-38 282 316
-0.04560595 0.70300001 -0.093677096 1.1982873e-38 283 316
-0.04437336 0.70300001 -0.093677096 1.2166185e-38 284 316
-0.043140765 0.70300001 -0.093677096 1.225874e-38 285 316
-0.041908171 0.70300001 -0.093677096 1.2350935e-38 286 316
-0.040675577 0.70300001 -0.093677096 1.2350935e-38 287 316
-0.039330769 0.70099998 -0.093410581 1.2258384e-38 288 316
-0.038101684 0.70099998 -0.093410581 1.2350579e-38 289 316
-0.036872596 0.70099998 -0.093410581 1.2442779e-38 290 316
-0.035745207 0.70300001 -0.093677096 1.2442779e-38 291 316
-0.034512613 0.70300001 -0.093677096 1.2351305e-38 292 316
-0.033280019 0.70300001 -0.093677096 1.225875e-38 293 316
-0.032047424 0.70300001 -0.093677096 1.1982526e-38 294 316
-0.030858666 0.704 -0.093810342 1.1797776e-38 295 316
-0.029624319 0.704 -0.093810342 1.1706659e-38 296 316
-0.028389972 0.704 -0.093810342 1.1706659e-38 297 316
-0.027155625 0.704 -0.093810342 1.1891046e-38 298 316
-0.025884461 0.70300001 -0.093677096 1.2075437e-38 299 316
-0.024581732 0.70099998 -0.093410581 1.2351305e-38 300 316
-0.023352645 0.70099998 -0.093410581 1.2351305e-38 301 316
-0.022091998 0.69999999 -0.093277335 1.2442782e-38 302 316
-0.020864666 0.69999999 -0.093277335 1.2719009e-38 303 316
-0.019637333 0.69999999 -0.093277335 1.2535331e-38 304 316
-0.018409999 0.69999999 -0.093277335 1.2719362e-38 305 316
-0.017182667 0.69999999 -0.093277335 1.2260539e-38 306 316
-0.015955333 0.69999999 -0.093277335 1.2260539e-38 307 316
-0.014727999 0.69999999 -0.093277335 1.2350579e-38 308 316
-0.013558527 0.70300001 -0.093677096 1.2258384e-38 309 316
-0.012325933 0.70300001 -0.093677096 1.2165835e-38 310 316
-0.01109334 0.70300001 -0.093677096 1.2165835e-38 311 316
-0.0098326923 0.70099998 -0.093410581 1.1983242e-38 312 316
-0.0085913334 0.69999999 -0.093277335 1.2075437e-38 313 316
-0.0073639993 0.69999999 -0.093277335 1.2350229e-38 314 316
-0.0061366665 0.69999999 -0.093277335 1.2350229e-38 315 316
-0.0048953067 0.69800001 -0.093010828 1.2533544e-38 316 316
-0.0036714801 0.69800001 -0.093010828 1.2533544e-38 317 316
-0.0024476533 0.69800001 -0.093010828 1.225875e-38 318 316
-0.0012238267 0.69800001 -0.093010828 1.1982523e-38 319 316
0 0.69800001 -0.093010828 1.189068e-38 320 316
0.0012238267 0.69800001 -0.093010828 1.1798485e-38 321 316
0.0024546667 0.69999999 -0.093277335 1.179741e-38 322 316
0.0036819996 0.69999999 -0.093277335 1.179741e-38 323 316
0.0049163462 0.70099998 -0.093410581 1.1797413e-38 324 316
0.0061454331 0.70099998 -0.093410581 1.1889608e-38 325 316
0.0073745195 0.70099998 -0.093410581 1.2074718e-38 326 316
0.0086036054 0.70099998 -0.093410581 1.2074718e-38 327 316
0.0098607466 0.70300001 -0.093677096 1.2257312e-38 328 316
0.01109334 0.70300001 -0.093677096 1.2165116e-38 329 316
0.012325933 0.70300001 -0.093677096 1.1890327e-38 330 316
0.013558527 0.70300001 -0.093677096 1.1982523e-38 331 316
0.014791119 0.70300001 -0.093677096 1.2075074e-38 332 316
0.016023712 0.70300001 -0.093677096 1.2259105e-38 333 316
0.017207211 0.70099998 -0.093410581 1.2350579e-38 334 316
0.018436298 0.70099998 -0.093410581 1.2443135e-38 335 316
0.019721493 0.70300001 -0.093677096 1.271864e-38 336 316
0.020954086 0.70300001 -0.093677096 1.271864e-38 337 316
0.02218668 0.70300001 -0.093677096 1.271864e-38 338 316
0.023419274 0.70300001 -0.093677096 1.2626445e-38 339 316
0.024651866 0.70300001 -0.093677096 1.2719006e-38 340 316
0.025884461 0.70300001 -0.093677096 1.281156e-38 341 316
0.027155625 0.704 -0.093810342 1.2627889e-38 342 316
0.028349647 0.70300001 -0.093677096 1.2720444e-38 343 316
0.029582238 0.70300001 -0.093677096 1.2997754e-38 344 316
0.030858666 0.704 -0.093810342 1.3181785e-38 345 316
0.032184184 0.70599997 -0.09407685 1.2722962e-38 346 316
0.03332736 0.704 -0.093810342 1.2722962e-38 347 316
0.034561705 0.704 -0.093810342 1.3366532e-38 348 316
0.035643511 0.70099998 -0.093410581 1.3273978e-38 349 316
0.036872596 0.70099998 -0.093410581 1.2260198e-38 350 316
0.038101684 0.70099998 -0.093410581 1.0139699e-38 351 316
0.039330769 0.70099998 -0.093410581 6.2746698e-39 352 316
0.040733438 0.704 -0.093810342 3.3247684e-39 353 316
0.041967787 0.704 -0.093810342 6.4601387e-39 354 316
0.043202132 0.704 -0.093810342 9.7791813e-39 355 316
0.044562716 0.70599997 -0.09407685 1.1614113e-38 356 316
0.04580057 0.70599997 -0.09407685 1.1337525e-38 357 316
0.047038425 0.70599997 -0.09407685 1.032409e-38 358 316
0.048276275 0.70599997 -0.09407685 9.0333514e-39 359 316
0.04951413 0.70599997 -0.09407685 5.1633056e-39 360 316
0.050823875 0.70700002 -0.094210111 4.6101318e-39 361 316
0.05206348 0.70700002 -0.094210111 6.9114296e-39 362 316
0.053378478 0.708 -0.094343357 8.5709496e-39 363 316
0.054619838 0.708 -0.094343357 9.586528e-39 364 316
0.055861197 0.708 -0.094343357 9.9556707e-39 365 316
0.057263866 0.70999998 -0.094609864 1.0233683e-38 366 316
0.058508728 0.70999998 -0.094609864 1.0786498e-38 367 316
0.059753593 0.70999998 -0.094609864 1.1613733e-38 368 316
0.060998458 0.70999998 -0.094609864 1.1613733e-38 369 316
0.062243331 0.70999998 -0.094609864 1.1888525e-38 370 316
0.063488193 0.70999998 -0.094609864 1.1888525e-38 371 316
0.064733058 0.70999998 -0.094609864 1.2812653e-38 372 316
0.065977924 0.70999998 -0.094609864 1.3458023e-38 373 316
0.067222796 0.70999998 -0.094609864 1.244641e-38 374 316
0.068564095 0.71100003 -0.094743125 1.1340062e-38 375 316
0.069810718 0.71100003 -0.094743125 8.6700088e-39 376 316
0.071257219 0.713 -0.095009625 7.2870729e-39 377 316
-0.079089358 0.71600002 -0.096664771 1.1617e-38 257 317
-0.07761655 0.71399999 -0.096394755 1.1800295e-38 258 317
-0.076043822 0.71100003 -0.095989741 1.1431873e-38 259 317
-0.074797198 0.71100003 -0.095989741 1.1332837e-38 260 317
-0.073550582 0.71100003 -0.095989741 9.2123379e-39 261 317
-0.072202265 0.70999998 -0.095854729 6.2642427e-39 262 317
-0.070957392 0.70999998 -0.095854729 4.4206889e-39 263 317
-0.069516152 0.708 -0.095584713 2.6783424e-39 264 317
-0.068274796 0.708 -0.095584713 3.6924943e-39 265 317
-0.066938758 0.70700002 -0.095449716 5.5299399e-39 266 317
-0.065699153 0.70700002 -0.095449716 6.5440919e-39 267 317
-0.064368367 0.70599997 -0.095314704 6.9157512e-39 268 317
-0.063130513 0.70599997 -0.095314704 8.4827168e-39 269 317
-0.061717331 0.704 -0.095044687 9.0412884e-39 270 317
-0.060482983 0.704 -0.095044687 1.0424224e-38 271 317
-0.059164476 0.70300001 -0.094909683 1.2444598e-38 272 317
-0.057931885 0.70300001 -0.094909683 1.2352044e-38 273 317
-0.056537982 0.70099998 -0.094639666 1.2445296e-38 274 317
-0.055229999 0.69999999 -0.094504662 1.2260905e-38 275 317
-0.054002665 0.69999999 -0.094504662 1.2260183e-38 276 317
-0.052775331 0.69999999 -0.094504662 1.207579e-38 277 317
-0.051547997 0.69999999 -0.094504662 1.207579e-38 278 317
-0.050320663 0.69999999 -0.094504662 1.1983595e-38 279 317
-0.049093332 0.69999999 -0.094504662 1.2075788e-38 280 317
-0.047865998 0.69999999 -0.094504662 1.1983592e-38 281 317
-0.046638668 0.69999999 -0.094504662 1.1983595e-38 282 317
-0.045476202 0.70099998 -0.094639666 1.1983595e-38 283 317
-0.04437336 0.70300001 -0.094909683 1.2259103e-38 284 317
-0.043140765 0.70300001 -0.094909683 1.23513e-38 285 317
-0.041788943 0.70099998 -0.094639666 1.280976e-38 286 317
-0.040559858 0.70099998 -0.094639666 1.280976e-38 287 317
-0.039330769 0.70099998 -0.094639666 1.2626092e-38 288 317
-0.038101684 0.70099998 -0.094639666 1.2626092e-38 289 317
-0.036872596 0.70099998 -0.094639666 1.2718287e-38 290 317
-0.035643511 0.70099998 -0.094639666 1.2718287e-38 291 317
-0.034414422 0.70099998 -0.094639666 1.2626094e-38 292 317
-0.03318534 0.70099998 -0.094639666 1.2441702e-38 293 317
-0.031956252 0.70099998 -0.094639666 1.1982523e-38 294 317
-0.030814834 0.70300001 -0.094909683 1.1890327e-38 295 317
-0.029582238 0.70300001 -0.094909683 1.1891043e-38 296 317
-0.028349647 0.70300001 -0.094909683 1.1983239e-38 297 317
-0.027039904 0.70099998 -0.094639666 1.2075793e-38 298 317
-0.025773998 0.69999999 -0.094504662 1.216799e-38 299 317
-0.024546666 0.69999999 -0.094504662 1.2626092e-38 300 317
-0.023319334 0.69999999 -0.094504662 1.2626092e-38 301 317
-0.02202888 0.69800001 -0.094234653 1.2625374e-38 302 317
-0.020805053 0.69800001 -0.094234653 1.2809407e-38 303 317
-0.019581227 0.69800001 -0.094234653 1.2901958e-38 304 317
-0.0183574 0.69800001 -0.094234653 1.2994154e-38 305 317
-0.017133573 0.69800001 -0.094234653 1.2719362e-38 306 317
-0.015909746 0.69800001 -0.094234653 1.2443135e-38 307 317
-0.01468592 0.69800001 -0.094234653 1.2441699e-38 308 317
-0.013462093 0.69800001 -0.094234653 1.2257668e-38 309 317
-0.012273333 0.69999999 -0.094504662 1.2165835e-38 310 317
-0.011045999 0.69999999 -0.094504662 1.2258031e-38 311 317
-0.0097906133 0.69800001 -0.094234653 1.2167634e-38 312 317
-0.0085667865 0.69800001 -0.094234653 1.2260189e-38 313 317
-0.0073429602 0.69800001 -0.094234653 1.2350952e-38 314 317
-0.006119133 0.69800001 -0.094234653 1.2258755e-38 315 317
-0.0048882933 0.69700003 -0.094099648 1.244063e-38 316 317
-0.00366622 0.69700003 -0.094099648 1.2532825e-38 317 317
-0.0024441467 0.69700003 -0.094099648 1.2165835e-38 318 317
-0.0012220733 0.69700003 -0.094099648 1.2258031e-38 319 317
0 0.69700003 -0.094099648 1.198252e-38 320 317
0.0012220733 0.69700003 -0.094099648 1.2075074e-38 321 317
0.0024441467 0.69700003 -0.094099648 1.1890324e-38 322 317
0.0036714801 0.69800001 -0.094234653 1.1705933e-38 323 317
0.0049093333 0.69999999 -0.094504662 1.1614819e-38 324 317
0.0061366665 0.69999999 -0.094504662 1.1614819e-38 325 317
0.0073639993 0.69999999 -0.094504662 1.189069e-38 326 317
0.0085913334 0.69999999 -0.094504662 1.189069e-38 327 317
0.0098186666 0.69999999 -0.094504662 1.2257315e-38 328 317
0.011045999 0.69999999 -0.094504662 1.2165119e-38 329 317
0.012273333 0.69999999 -0.094504662 1.1891046e-38 330 317
0.013500666 0.69999999 -0.094504662 1.1983242e-38 331 317
0.014727999 0.69999999 -0.094504662 1.2259105e-38 332 317
0.015955333 0.69999999 -0.094504662 1.2443498e-38 333 317
0.017182667 0.69999999 -0.094504662 1.2443854e-38 334 317
0.018409999 0.69999999 -0.094504662 1.253605e-38 335 317
0.019637333 0.69999999 -0.094504662 1.2810836e-38 336 317
0.020894472 0.70099998 -0.094639666 1.290339e-38 337 317
0.022123558 0.70099998 -0.094639666 1.2628245e-38 338 317
0.023352645 0.70099998 -0.094639666 1.253605e-38 339 317
0.024581732 0.70099998 -0.094639666 1.281156e-38 340 317
0.025810819 0.70099998 -0.094639666 1.281156e-38 341 317
0.027039904 0.70099998 -0.094639666 1.2811204e-38 342 317
0.028268991 0.70099998 -0.094639666 1.2995954e-38 343 317
0.029498078 0.70099998 -0.094639666 1.3088514e-38 344 317
0.030858666 0.704 -0.095044687 1.3273264e-38 345 317
0.032093015 0.704 -0.095044687 1.3366179e-38 346 317
0.033043321 0.69800001 -0.094234653 1.3458376e-38 347 317
0.034267146 0.69800001 -0.094234653 1.2998119e-38 348 317
0.035490975 0.69800001 -0.094234653 1.1615185e-38 349 317
0.036819998 0.69999999 -0.094504662 1.0321572e-38 350 317
0.038047329 0.69999999 -0.094504662 7.8326503e-39 351 317
0.039274666 0.69999999 -0.094504662 4.7084189e-39 352 317
0.040559858 0.70099998 -0.094639666 6.7367227e-39 353 317
0.041788943 0.70099998 -0.094639666 9.5904755e-39 354 317
0.043140765 0.70300001 -0.094909683 1.11578e-38 355 317
0.04437336 0.70300001 -0.094909683 1.1154573e-38 356 317
0.045670826 0.704 -0.095044687 1.0048585e-38 357 317
0.046905171 0.704 -0.095044687 7.1901605e-39 358 317
0.048276275 0.70599997 -0.095314704 5.3462493e-39 359 317
0.04951413 0.70599997 -0.095314704 5.800043e-39 360 317
0.050751984 0.70599997 -0.095314704 7.1829775e-39 361 317
0.051989835 0.70599997 -0.095314704 8.6649417e-39 362 317
0.053303085 0.70700002 -0.095449716 9.5872567e-39 363 317
0.054542694 0.70700002 -0.095449716 1.1152056e-38 364 317
0.055782299 0.70700002 -0.095449716 1.170523e-38 365 317
0.057102561 0.708 -0.095584713 1.1522984e-38 366 317
0.058343921 0.708 -0.095584713 1.1707734e-38 367 317
0.059753593 0.70999998 -0.095854729 1.1707368e-38 368 317
0.060998458 0.70999998 -0.095854729 1.1522618e-38 369 317
0.062243331 0.70999998 -0.095854729 1.189069e-38 370 317
0.063488193 0.70999998 -0.095854729 1.2628614e-38 371 317
0.064733058 0.70999998 -0.095854729 1.2446395e-38 372 317
0.065977924 0.70999998 -0.095854729 1.2354199e-38 373 317
0.067222796 0.70999998 -0.095854729 1.1615577e-38 374 317
0.068564095 0.71100003 -0.095989741 1.0601065e-38 375 317
0.070007093 0.713 -0.09625975 8.3923457e-39 376 317
-0.07761655 0.71399999 -0.097646631 1.1802466e-38 258 318
-0.076043822 0.71100003 -0.097236358 1.217125e-38 259 318
-0.074797198 0.71100003 -0.097236358 1.3453705e-38 260 318
-0.073550582 0.71100003 -0.097236358 1.2070771e-38 261 318
-0.072202265 0.70999998 -0.097099595 9.9524169e-39 262 318
-0.070957392 0.70999998 -0.097099595 7.186548e-39 263 318
-0.069516152 0.708 -0.096826077 4.8845285e-39 264 318
-0.068274796 0.708 -0.096826077 3.7785411e-39 265 318
-0.067033432 0.708 -0.096826077 3.3179455e-39 266 318
-0.065699153 0.70700002 -0.096689314 2.857326e-39 267 318
-0.064459547 0.70700002 -0.096689314 2.1255414e-39 268 318
-0.063130513 0.70599997 -0.096552551 3.5084758e-39 269 318
-0.061892662 0.70599997 -0.096552551 3.7004411e-39 270 318
-0.060482983 0.704 -0.096279033 6.6507026e-39 271 318
-0.059164476 0.70300001 -0.096142277 1.2258429e-38 272 318
-0.057931885 0.70300001 -0.096142277 1.2719407e-38 273 318
-0.056537982 0.70099998 -0.095868751 1.2998482e-38 274 318
-0.055229999 0.69999999 -0.095731996 1.3091037e-38 275 318
-0.054002665 0.69999999 -0.095731996 1.3182514e-38 276 318
-0.052624546 0.69800001 -0.095458478 1.2997764e-38 277 318
-0.051400717 0.69800001 -0.095458478 1.2354547e-38 278 318
-0.050176892 0.69800001 -0.095458478 1.1985763e-38 279 318
-0.048953064 0.69800001 -0.095458478 1.2260536e-38 280 318
-0.047660861 0.69700003 -0.095321722 1.2260536e-38 281 318
-0.046438783 0.69700003 -0.095321722 1.2535325e-38 282 318
-0.045216713 0.69700003 -0.095321722 1.244313e-38 283 318
-0.043994639 0.69700003 -0.095321722 1.271864e-38 284 318
-0.042772565 0.69700003 -0.095321722 1.271864e-38 285 318
-0.041550495 0.69700003 -0.095321722 1.280976e-38 286 318
-0.040328421 0.69700003 -0.095321722 1.280976e-38 287 318
-0.039106347 0.69700003 -0.095321722 1.2442782e-38 288 318
-0.037938625 0.69800001 -0.095458478 1.2534978e-38 289 318
-0.0367148 0.69800001 -0.095458478 1.2442426e-38 290 318
-0.035592664 0.69999999 -0.095731996 1.2442426e-38 291 318
-0.034365334 0.69999999 -0.095731996 1.2258752e-38 292 318
-0.033137999 0.69999999 -0.095731996 1.2074721e-38 293 318
-0.031956252 0.70099998 -0.095868751 1.1707012e-38 294 318
-0.030727165 0.70099998 -0.095868751 1.1707012e-38 295 318
-0.029498078 0.70099998 -0.095868751 1.1982876e-38 296 318
-0.028268991 0.70099998 -0.095868751 1.2259103e-38 297 318
-0.027001332 0.69999999 -0.095731996 1.2533894e-38 298 318
-0.025700359 0.69800001 -0.095458478 1.2533894e-38 299 318
-0.024476532 0.69800001 -0.095458478 1.2533178e-38 300 318
-0.023252707 0.69800001 -0.095458478 1.2533178e-38 301 318
-0.02199732 0.69700003 -0.095321722 1.2441702e-38 302 318
-0.020775247 0.69700003 -0.095321722 1.2626094e-38 303 318
-0.019553173 0.69700003 -0.095321722 1.2718293e-38 304 318
-0.018331099 0.69700003 -0.095321722 1.2718293e-38 305 318
-0.017109027 0.69700003 -0.095321722 1.2534978e-38 306 318
-0.015886955 0.69700003 -0.095321722 1.2442782e-38 307 318
-0.01466488 0.69700003 -0.095321722 1.2258031e-38 308 318
-0.013442807 0.69700003 -0.095321722 1.2165835e-38 309 318
-0.012220734 0.69700003 -0.095321722 1.2074718e-38 310 318
-0.01099866 0.69700003 -0.095321722 1.225875e-38 311 318
-0.0097625591 0.69599998 -0.095184952 1.2260189e-38 312 318
-0.0085422397 0.69599998 -0.095184952 1.2260189e-38 313 318
-0.0073219193 0.69599998 -0.095184952 1.2626097e-38 314 318
-0.0061015999 0.69599998 -0.095184952 1.2533541e-38 315 318
-0.0048672534 0.69400001 -0.094911434 1.2441349e-38 316 318
-0.0036504399 0.69400001 -0.094911434 1.2257317e-38 317 318
-0.0024406398 0.69599998 -0.095184952 1.2258033e-38 318 318
-0.0012203199 0.69599998 -0.095184952 1.2258033e-38 319 318
0 0.69599998 -0.095184952 1.2075074e-38 320 318
0.0012203199 0.69599998 -0.095184952 1.2075074e-38 321 318
0.0024406398 0.69599998 -0.095184952 1.2073639e-38 322 318
0.00366622 0.69700003 -0.095321722 1.1889608e-38 323 318
0.0048953067 0.69800001 -0.095458478 1.1798132e-38 324 318
0.006119133 0.69800001 -0.095458478 1.1890327e-38 325 318
0.0073429602 0.69800001 -0.095458478 1.189033e-38 326 318
0.0085667865 0.69800001 -0.095458478 1.1982526e-38 327 318
0.0097906133 0.69800001 -0.095458478 1.2073286e-38 328 318
0.01101444 0.69800001 -0.095458478 1.2073286e-38 329 318
0.012238266 0.69800001 -0.095458478 1.1890693e-38 330 318
0.013500666 0.69999999 -0.095731996 1.1982889e-38 331 318
0.014727999 0.69999999 -0.095731996 1.216764e-38 332 318
0.015955333 0.69999999 -0.095731996 1.2259836e-38 333 318
0.017133573 0.69800001 -0.095458478 1.2719009e-38 334 318
0.0183574 0.69800001 -0.095458478 1.2719009e-38 335 318
0.019581227 0.69800001 -0.095458478 1.281156e-38 336 318
0.020864666 0.69999999 -0.095731996 1.2903756e-38 337 318
