# .PCD v.7 - Point Cloud Data file format
FIELDS x y z rgb imX imY
SIZE 4 4 4 4 4 4
TYPE F F F F F F
COUNT 1 1 1 1 1 1
WIDTH 833
HEIGHT 1
VIEWPOINT 0 0 0 1 0 0 0
POINTS 833
DATA ascii
0.020254506 0.722 -0.024052227 1.1047164e-38 336 259
0.021609833 0.72500002 -0.024152167 1.1047164e-38 337 259
0.022944121 0.727 -0.024218792 1.1047164e-38 338 259
0.024252106 0.72799999 -0.024252106 1.1139359e-38 339 259
0.025528532 0.72799999 -0.024252106 1.0956046e-38 340 259
0.026804959 0.72799999 -0.024252106 1.0863852e-38 341 259
-0.04937036 0.722 -0.025318133 1.4467486e-38 281 260
-0.0479712 0.72000003 -0.025248 1.419303e-38 282 260
-0.0467088 0.72000003 -0.025248 1.1979977e-38 283 260
-0.045383278 0.71899998 -0.025212931 1.0871408e-38 284 260
-0.043999899 0.71700001 -0.0251428 1.1147993e-38 285 260
-0.042683143 0.71600002 -0.025107734 1.2159952e-38 286 260
-0.041312039 0.71399999 -0.025037598 1.2159952e-38 287 260
-0.040004052 0.713 -0.025002534 1.2711683e-38 288 260
-0.038753927 0.713 -0.025002534 1.2711683e-38 289 260
-0.037398599 0.71100003 -0.024932399 1.3079742e-38 290 260
-0.036101133 0.70999998 -0.024897331 1.3264131e-38 291 260
-0.034856264 0.70999998 -0.024897331 1.3355249e-38 292 260
-0.033516716 0.708 -0.024827199 1.381622e-38 293 260
-0.03227536 0.708 -0.024827199 1.3358119e-38 294 260
-0.030990168 0.70700002 -0.024792133 1.3265566e-38 295 260
-0.029750559 0.70700002 -0.024792133 1.3448519e-38 296 260
-0.028510952 0.70700002 -0.024792133 1.3171937e-38 297 260
-0.027271347 0.70700002 -0.024792133 1.3264489e-38 298 260
-0.025994917 0.70599997 -0.024757065 1.3356684e-38 299 260
-0.024757065 0.70599997 -0.024757065 1.3263413e-38 300 260
-0.023519212 0.70599997 -0.024757065 1.3079025e-38 301 260
-0.022281358 0.70599997 -0.024757065 1.2985754e-38 302 260
-0.021043506 0.70599997 -0.024757065 1.2801366e-38 303 260
-0.019805651 0.70599997 -0.024757065 1.2800648e-38 304 260
-0.018567799 0.70599997 -0.024757065 1.2800648e-38 305 260
-0.017329946 0.70599997 -0.024757065 1.2891767e-38 306 260
-0.016092092 0.70599997 -0.024757065 1.3076155e-38 307 260
-0.014854239 0.70599997 -0.024757065 1.2801366e-38 308 260
-0.013616386 0.70599997 -0.024757065 1.2708813e-38 309 260
-0.012378532 0.70599997 -0.024757065 1.2708096e-38 310 260
-0.011140679 0.70599997 -0.024757065 1.2615901e-38 311 260
-0.0099168532 0.70700002 -0.024792133 1.2615901e-38 312 260
-0.008677247 0.70700002 -0.024792133 1.2523707e-38 313 260
-0.0074376399 0.70700002 -0.024792133 1.233896e-38 314 260
-0.0061980332 0.70700002 -0.024792133 1.233896e-38 315 260
-0.0049584266 0.70700002 -0.024792133 1.2155648e-38 316 260
-0.0037188199 0.70700002 -0.024792133 1.2247842e-38 317 260
-0.0024792133 0.70700002 -0.024792133 1.2431154e-38 318 260
-0.00124136 0.708 -0.024827199 1.233896e-38 319 260
0 0.708 -0.024827199 1.2245689e-38 320 260
0.00124136 0.708 -0.024827199 1.1969465e-38 321 260
0.00248272 0.708 -0.024827199 1.2153136e-38 322 260
0.0037345996 0.70999998 -0.024897331 1.1969107e-38 323 260
0.0049794666 0.70999998 -0.024897331 1.1601765e-38 324 260
0.0062243328 0.70999998 -0.024897331 1.1509571e-38 325 260
0.0074797203 0.71100003 -0.024932399 1.1508853e-38 326 260
0.0087263398 0.71100003 -0.024932399 1.1416659e-38 327 260
0.010001013 0.713 -0.025002534 1.1416659e-38 328 260
0.011266919 0.71399999 -0.025037598 1.1324465e-38 329 260
0.012518799 0.71399999 -0.025037598 1.1231194e-38 330 260
0.013809253 0.71600002 -0.025107734 1.1139e-38 331 260
0.01506464 0.71600002 -0.025107734 1.1139359e-38 332 260
0.016342819 0.71700001 -0.0251428 1.1139359e-38 333 260
0.017599959 0.71700001 -0.0251428 1.0956046e-38 334 260
0.018909698 0.71899998 -0.025212931 1.0771299e-38 335 260
0.020254506 0.722 -0.025318133 1.1046447e-38 336 260
0.021550218 0.72299999 -0.025353199 1.1046447e-38 337 260
0.022944121 0.727 -0.025493465 1.1047164e-38 338 260
0.024252106 0.72799999 -0.025528532 1.1139359e-38 339 260
0.025528532 0.72799999 -0.025528532 1.0590498e-38 340 260
-0.0479712 0.72000003 -0.026510401 1.3915366e-38 282 261
-0.0467088 0.72000003 -0.026510401 1.1149496e-38 283 261
-0.045257039 0.71700001 -0.02639994 9.8568988e-39 284 261
-0.043999899 0.71700001 -0.02639994 1.0687018e-38 285 261
-0.042683143 0.71600002 -0.026363119 1.1883011e-38 286 261
-0.041312039 0.71399999 -0.026289478 1.2067758e-38 287 261
-0.040004052 0.713 -0.026252659 1.2160311e-38 288 261
-0.038753927 0.713 -0.026252659 1.2252505e-38 289 261
-0.037345998 0.70999998 -0.026142199 1.2803877e-38 290 261
-0.036101133 0.70999998 -0.026142199 1.2988266e-38 291 261
-0.034856264 0.70999998 -0.026142199 1.3173017e-38 292 261
-0.033516716 0.708 -0.026068559 1.3449963e-38 293 261
-0.03227536 0.708 -0.026068559 1.3265934e-38 294 261
-0.030990168 0.70700002 -0.02603174 1.2989349e-38 295 261
-0.029750559 0.70700002 -0.02603174 1.308046e-38 296 261
-0.028510952 0.70700002 -0.02603174 1.2988266e-38 297 261
-0.027271347 0.70700002 -0.02603174 1.2988624e-38 298 261
-0.025994917 0.70599997 -0.025994917 1.289643e-38 299 261
-0.024757065 0.70599997 -0.025994917 1.2986472e-38 300 261
-0.023519212 0.70599997 -0.025994917 1.2710248e-38 301 261
-0.022281358 0.70599997 -0.025994917 1.2617695e-38 302 261
-0.021043506 0.70599997 -0.025994917 1.2525501e-38 303 261
-0.019805651 0.70599997 -0.025994917 1.2615901e-38 304 261
-0.018567799 0.70599997 -0.025994917 1.2708096e-38 305 261
-0.017329946 0.70599997 -0.025994917 1.2433306e-38 306 261
-0.016092092 0.70599997 -0.025994917 1.2433306e-38 307 261
-0.014854239 0.70599997 -0.025994917 1.2432589e-38 308 261
-0.013616386 0.70599997 -0.025994917 1.2432589e-38 309 261
-0.012378532 0.70599997 -0.025994917 1.2431154e-38 310 261
-0.011140679 0.70599997 -0.025994917 1.2431154e-38 311 261
-0.0099168532 0.70700002 -0.02603174 1.2247842e-38 312 261
-0.008677247 0.70700002 -0.02603174 1.2155289e-38 313 261
-0.0074376399 0.70700002 -0.02603174 1.2155289e-38 314 261
-0.0061980332 0.70700002 -0.02603174 1.19709e-38 315 261
-0.0049584266 0.70700002 -0.02603174 1.1879782e-38 316 261
-0.0037188199 0.70700002 -0.02603174 1.1879782e-38 317 261
-0.0024792133 0.70700002 -0.02603174 1.19709e-38 318 261
-0.00124136 0.708 -0.026068559 1.1786512e-38 319 261
0 0.708 -0.026068559 1.187763e-38 320 261
0.00124136 0.708 -0.026068559 1.187763e-38 321 261
0.00248272 0.708 -0.026068559 1.1692883e-38 322 261
0.0037345996 0.70999998 -0.026142199 1.1692883e-38 323 261
0.0049794666 0.70999998 -0.026142199 1.1508853e-38 324 261
0.0062243328 0.70999998 -0.026142199 1.1324465e-38 325 261
0.0074797203 0.71100003 -0.026179021 1.1507418e-38 326 261
0.0087263398 0.71100003 -0.026179021 1.1599612e-38 327 261
0.010001013 0.713 -0.026252659 1.1324106e-38 328 261
0.011266919 0.71399999 -0.026289478 1.1231912e-38 329 261
0.012518799 0.71399999 -0.026289478 1.1231194e-38 330 261
0.013809253 0.71600002 -0.026363119 1.1138641e-38 331 261
0.01506464 0.71600002 -0.026363119 1.1047164e-38 332 261
0.016342819 0.71700001 -0.02639994 1.0863135e-38 333 261
0.017599959 0.71700001 -0.02639994 1.0863135e-38 334 261
0.018909698 0.71899998 -0.02647358 1.0863135e-38 335 261
0.020254506 0.722 -0.026584039 1.0770941e-38 336 261
0.021550218 0.72299999 -0.026620859 1.0863135e-38 337 261
0.022944121 0.727 -0.026768139 1.0680181e-38 338 261
0.024252106 0.72799999 -0.026804959 1.1048958e-38 339 261
0.025528532 0.72799999 -0.026804959 1.095784e-38 340 261
0.026804959 0.72799999 -0.026804959 1.095784e-38 341 261
-0.0492336 0.72000003 -0.027772799 1.4560038e-38 281 262
-0.0479712 0.72000003 -0.027772799 1.3730971e-38 282 262
-0.046643924 0.71899998 -0.027734226 1.0043505e-38 283 262
-0.045257039 0.71700001 -0.027657079 8.4729007e-39 284 262
-0.043999899 0.71700001 -0.027657079 1.0040577e-38 285 262
-0.042683143 0.71600002 -0.027618507 1.0871744e-38 286 262
-0.041312039 0.71399999 -0.02754136 1.1056133e-38 287 262
-0.040004052 0.713 -0.027502786 1.2067041e-38 288 262
-0.038645219 0.71100003 -0.027425639 1.2159235e-38 289 262
-0.037345998 0.70999998 -0.027387066 1.2527294e-38 290 262
-0.036101133 0.70999998 -0.027387066 1.2803877e-38 291 262
-0.034856264 0.70999998 -0.027387066 1.3080101e-38 292 262
-0.033516716 0.708 -0.027309919 1.3541079e-38 293 262
-0.03227536 0.708 -0.027309919 1.3172669e-38 294 262
-0.030990168 0.70700002 -0.027271347 1.3080114e-38 295 262
-0.029708479 0.70599997 -0.027232772 1.2988268e-38 296 262
-0.028470624 0.70599997 -0.027232772 1.2988268e-38 297 262
-0.027232772 0.70599997 -0.027232772 1.2988266e-38 298 262
-0.025994917 0.70599997 -0.027232772 1.2711324e-38 299 262
-0.024757065 0.70599997 -0.027232772 1.2617695e-38 300 262
-0.023519212 0.70599997 -0.027232772 1.2525501e-38 301 262
-0.022281358 0.70599997 -0.027232772 1.2433306e-38 302 262
-0.021043506 0.70599997 -0.027232772 1.2340754e-38 303 262
-0.019805651 0.70599997 -0.027232772 1.2432589e-38 304 262
-0.018567799 0.70599997 -0.027232772 1.2432589e-38 305 262
-0.017329946 0.70599997 -0.027232772 1.2340754e-38 306 262
-0.016092092 0.70599997 -0.027232772 1.2340754e-38 307 262
-0.014854239 0.70599997 -0.027232772 1.2340036e-38 308 262
-0.013616386 0.70599997 -0.027232772 1.2247842e-38 309 262
-0.012378532 0.70599997 -0.027232772 1.233896e-38 310 262
-0.011140679 0.70599997 -0.027232772 1.2154571e-38 311 262
-0.0099028256 0.70599997 -0.027232772 1.1879782e-38 312 262
-0.008677247 0.70700002 -0.027271347 1.1879782e-38 313 262
-0.0074376399 0.70700002 -0.027271347 1.2063095e-38 314 262
-0.0061980332 0.70700002 -0.027271347 1.2063095e-38 315 262
-0.0049584266 0.70700002 -0.027271347 1.19709e-38 316 262
-0.0037188199 0.70700002 -0.027271347 1.1786512e-38 317 262
-0.0024792133 0.70700002 -0.027271347 1.187763e-38 318 262
-0.00124136 0.708 -0.027309919 1.1785436e-38 319 262
0 0.708 -0.027309919 1.1692165e-38 320 262
0.00124136 0.708 -0.027309919 1.1692165e-38 321 262
0.0024897333 0.70999998 -0.027387066 1.1417376e-38 322 262
0.0037345996 0.70999998 -0.027387066 1.1140794e-38 323 262
0.0049794666 0.70999998 -0.027387066 1.1323388e-38 324 262
0.0062330998 0.71100003 -0.027425639 1.1231194e-38 325 262
0.0074797203 0.71100003 -0.027425639 1.1231194e-38 326 262
0.0087263398 0.71100003 -0.027425639 1.1231194e-38 327 262
0.010001013 0.713 -0.027502786 1.1139359e-38 328 262
0.011266919 0.71399999 -0.02754136 1.1139359e-38 329 262
0.012553867 0.71600002 -0.027618507 1.1046447e-38 330 262
0.013809253 0.71600002 -0.027618507 1.0954253e-38 331 262
0.01506464 0.71600002 -0.027618507 1.1046088e-38 332 262
0.016342819 0.71700001 -0.027657079 1.1046088e-38 333 262
0.017599959 0.71700001 -0.027657079 1.0770941e-38 334 262
0.018909698 0.71899998 -0.027734226 1.0770941e-38 335 262
0.020254506 0.722 -0.027849946 1.0771299e-38 336 262
0.021609833 0.72500002 -0.027965667 1.0863852e-38 337 262
0.022944121 0.727 -0.028042812 1.0956046e-38 338 262
0.024252106 0.72799999 -0.028081384 1.1140794e-38 339 262
0.025528532 0.72799999 -0.028081384 1.1050393e-38 340 262
0.026804959 0.72799999 -0.028081384 1.0958199e-38 341 262
-0.0492336 0.72000003 -0.029035201 1.4467483e-38 281 263
-0.0479712 0.72000003 -0.029035201 1.3453662e-38 282 263
-0.046643924 0.71899998 -0.028994869 9.9505868e-39 283 263
-0.045257039 0.71700001 -0.028914221 7.9197353e-39 284 263
-0.043999899 0.71700001 -0.028914221 9.5792413e-39 285 263
-0.042683143 0.71600002 -0.028873893 1.0134908e-38 286 263
-0.041312039 0.71399999 -0.028793238 1.0227102e-38 287 263
-0.040004052 0.713 -0.028752912 1.1697546e-38 288 263
-0.038645219 0.71100003 -0.028672259 1.1974488e-38 289 263
-0.037345998 0.70999998 -0.028631933 1.2434741e-38 290 263
-0.036101133 0.70999998 -0.028631933 1.2526936e-38 291 263
-0.034856264 0.70999998 -0.028631933 1.280316e-38 292 263
-0.033516716 0.708 -0.02855128 1.2895354e-38 293 263
-0.03227536 0.708 -0.02855128 1.2894285e-38 294 263
-0.030990168 0.70700002 -0.028510952 1.3078316e-38 295 263
-0.029708479 0.70599997 -0.028470624 1.2804956e-38 296 263
-0.028470624 0.70599997 -0.028470624 1.2804956e-38 297 263
-0.027232772 0.70599997 -0.028470624 1.2711324e-38 298 263
-0.025994917 0.70599997 -0.028470624 1.2158159e-38 299 263
-0.024757065 0.70599997 -0.028470624 1.2340754e-38 300 263
-0.023519212 0.70599997 -0.028470624 1.2248559e-38 301 263
-0.022281358 0.70599997 -0.028470624 1.206453e-38 302 263
-0.021043506 0.70599997 -0.028470624 1.206453e-38 303 263
-0.019805651 0.70599997 -0.028470624 1.206453e-38 304 263
-0.018567799 0.70599997 -0.028470624 1.206453e-38 305 263
-0.017329946 0.70599997 -0.028470624 1.2064171e-38 306 263
-0.016092092 0.70599997 -0.028470624 1.2064171e-38 307 263
-0.014854239 0.70599997 -0.028470624 1.2155289e-38 308 263
-0.013616386 0.70599997 -0.028470624 1.2063095e-38 309 263
-0.012378532 0.70599997 -0.028470624 1.19709e-38 310 263
-0.011140679 0.70599997 -0.028470624 1.1786512e-38 311 263
-0.0099028256 0.70599997 -0.028470624 1.1786512e-38 312 263
-0.0086649731 0.70599997 -0.028470624 1.19709e-38 313 263
-0.0074271196 0.70599997 -0.028470624 1.1695035e-38 314 263
-0.0061980332 0.70700002 -0.028510952 1.1695035e-38 315 263
-0.0049584266 0.70700002 -0.028510952 1.1695035e-38 316 263
-0.0037188199 0.70700002 -0.028510952 1.1602841e-38 317 263
-0.0024792133 0.70700002 -0.028510952 1.1601765e-38 318 263
-0.0012396066 0.70700002 -0.028510952 1.1417376e-38 319 263
0 0.708 -0.02855128 1.1416659e-38 320 263
0.00124136 0.708 -0.02855128 1.1324465e-38 321 263
0.0024897333 0.70999998 -0.028631933 1.1140794e-38 322 263
0.0037345996 0.70999998 -0.028631933 1.1048599e-38 323 263
0.0049794666 0.70999998 -0.028631933 1.1139359e-38 324 263
0.0062330998 0.71100003 -0.028672259 1.1139359e-38 325 263
0.0074797203 0.71100003 -0.028672259 1.1139359e-38 326 263
0.0087263398 0.71100003 -0.028672259 1.1047164e-38 327 263
0.010001013 0.713 -0.028752912 1.1047164e-38 328 263
0.011266919 0.71399999 -0.028793238 1.1047164e-38 329 263
0.012553867 0.71600002 -0.028873893 1.1046447e-38 330 263
0.013809253 0.71600002 -0.028873893 1.1046447e-38 331 263
0.01506464 0.71600002 -0.028873893 1.0953894e-38 332 263
0.016342819 0.71700001 -0.028914221 1.0953894e-38 333 263
0.017599959 0.71700001 -0.028914221 1.0679105e-38 334 263
0.018909698 0.71899998 -0.028994869 1.0679105e-38 335 263
0.020254506 0.722 -0.029115854 1.0587987e-38 336 263
0.021609833 0.72500002 -0.029236834 1.0587987e-38 337 263
0.022944121 0.727 -0.029317487 1.086457e-38 338 263
0.024252106 0.72799999 -0.029357811 1.1048958e-38 339 263
0.025528532 0.72799999 -0.029357811 1.1325901e-38 340 263
0.026804959 0.72799999 -0.029357811 1.1325901e-38 341 263
-0.0492336 0.72000003 -0.0302976 1.4467119e-38 281 264
-0.0479712 0.72000003 -0.0302976 1.3454018e-38 282 264
-0.046643924 0.71899998 -0.030255521 9.950584e-39 283 264
-0.045383278 0.71899998 -0.030255521 7.9197353e-39 284 264
-0.043999899 0.71700001 -0.030171359 9.3948542e-39 285 264
-0.042683143 0.71600002 -0.03012928 9.8576078e-39 286 264
-0.041312039 0.71399999 -0.030045118 1.0041996e-38 287 264
-0.040004052 0.713 -0.030003037 1.1054698e-38 288 264
-0.038645219 0.71100003 -0.029918881 1.1423475e-38 289 264
-0.037345998 0.70999998 -0.029876797 1.2159594e-38 290 264
-0.036101133 0.70999998 -0.029876797 1.2159594e-38 291 264
-0.034856264 0.70999998 -0.029876797 1.2525859e-38 292 264
-0.033516716 0.708 -0.02979264 1.2525859e-38 293 264
-0.03227536 0.708 -0.02979264 1.2525501e-38 294 264
-0.030990168 0.70700002 -0.029750559 1.2710248e-38 295 264
-0.029750559 0.70700002 -0.029750559 1.2528371e-38 296 264
-0.028470624 0.70599997 -0.029708479 1.2344341e-38 297 264
-0.027232772 0.70599997 -0.029708479 1.2525859e-38 298 264
-0.025994917 0.70599997 -0.029708479 1.2064888e-38 299 264
-0.024757065 0.70599997 -0.029708479 1.1971977e-38 300 264
-0.023519212 0.70599997 -0.029708479 1.1879782e-38 301 264
-0.022281358 0.70599997 -0.029708479 1.1879782e-38 302 264
-0.021043506 0.70599997 -0.029708479 1.1879782e-38 303 264
-0.019805651 0.70599997 -0.029708479 1.1879782e-38 304 264
-0.018567799 0.70599997 -0.029708479 1.1879782e-38 305 264
-0.017329946 0.70599997 -0.029708479 1.1971977e-38 306 264
-0.016092092 0.70599997 -0.029708479 1.1879782e-38 307 264
-0.014854239 0.70599997 -0.029708479 1.1787229e-38 308 264
-0.013616386 0.70599997 -0.029708479 1.1695035e-38 309 264
-0.012378532 0.70599997 -0.029708479 1.1695035e-38 310 264
-0.011140679 0.70599997 -0.029708479 1.1602841e-38 311 264
-0.0099028256 0.70599997 -0.029708479 1.1694318e-38 312 264
-0.0086649731 0.70599997 -0.029708479 1.1694318e-38 313 264
-0.0074271196 0.70599997 -0.029708479 1.1694318e-38 314 264
-0.0061980332 0.70700002 -0.029750559 1.1694318e-38 315 264
-0.0049584266 0.70700002 -0.029750559 1.1602482e-38 316 264
-0.0037188199 0.70700002 -0.029750559 1.1602482e-38 317 264
-0.0024792133 0.70700002 -0.029750559 1.1418453e-38 318 264
-0.0012396066 0.70700002 -0.029750559 1.1233705e-38 319 264
0 0.708 -0.02979264 1.1324823e-38 320 264
0.00124136 0.708 -0.02979264 1.1324823e-38 321 264
0.0024897333 0.70999998 -0.029876797 1.1048599e-38 322 264
0.0037345996 0.70999998 -0.029876797 1.1048599e-38 323 264
0.0049794666 0.70999998 -0.029876797 1.0956046e-38 324 264
0.0062330998 0.71100003 -0.029918881 1.0956046e-38 325 264
0.0074797203 0.71100003 -0.029918881 1.0956046e-38 326 264
0.0087508867 0.713 -0.030003037 1.0956046e-38 327 264
0.01001504 0.71399999 -0.030045118 1.0956046e-38 328 264
0.011266919 0.71399999 -0.030045118 1.0863852e-38 329 264
0.012518799 0.71399999 -0.030045118 1.0863135e-38 330 264
0.013809253 0.71600002 -0.03012928 1.0863135e-38 331 264
0.01506464 0.71600002 -0.03012928 1.0771299e-38 332 264
0.016342819 0.71700001 -0.030171359 1.0771299e-38 333 264
0.017599959 0.71700001 -0.030171359 1.0771299e-38 334 264
0.018909698 0.71899998 -0.030255521 1.0771299e-38 335 264
0.020254506 0.722 -0.030381758 1.0771299e-38 336 264
0.021609833 0.72500002 -0.030508002 1.0863852e-38 337 264
0.022944121 0.727 -0.030592158 1.0863852e-38 338 264
0.024252106 0.72799999 -0.030634239 1.1232988e-38 339 264
0.025528532 0.72799999 -0.030634239 1.1234448e-38 340 264
0.026804959 0.72799999 -0.030634239 1.2064209e-38 341 264
-0.0479712 0.72000003 -0.03156 1.4099031e-38 282 265
-0.0467088 0.72000003 -0.03156 1.0226815e-38 283 265
-0.045446403 0.72000003 -0.03156 7.3687224e-39 284 265
-0.044183999 0.72000003 -0.03156 9.0278822e-39 285 265
-0.042742759 0.71700001 -0.031428497 9.8572491e-39 286 265
-0.041312039 0.71399999 -0.031296998 1.0134196e-38 287 265
-0.040004052 0.713 -0.031253166 1.1238728e-38 288 265
-0.038645219 0.71100003 -0.031165501 1.169934e-38 289 265
-0.037398599 0.71100003 -0.031165501 1.2343623e-38 290 265
-0.036101133 0.70999998 -0.031121666 1.2159594e-38 291 265
-0.034856264 0.70999998 -0.031121666 1.2526218e-38 292 265
-0.033516716 0.708 -0.031034 1.2434024e-38 293 265
-0.03227536 0.708 -0.031034 1.2433665e-38 294 265
-0.030990168 0.70700002 -0.030990168 1.2618412e-38 295 265
-0.029708479 0.70599997 -0.030946331 1.2434741e-38 296 265
-0.028470624 0.70599997 -0.030946331 1.2250353e-38 297 265
-0.027232772 0.70599997 -0.030946331 1.2157083e-38 298 265
-0.025994917 0.70599997 -0.030946331 1.1972694e-38 299 265
-0.024757065 0.70599997 -0.030946331 1.18805e-38 300 265
-0.023519212 0.70599997 -0.030946331 1.1788306e-38 301 265
-0.022281358 0.70599997 -0.030946331 1.1787229e-38 302 265
-0.021043506 0.70599997 -0.030946331 1.1787229e-38 303 265
-0.019805651 0.70599997 -0.030946331 1.1787229e-38 304 265
-0.018567799 0.70599997 -0.030946331 1.1879782e-38 305 265
-0.017329946 0.70599997 -0.030946331 1.1879782e-38 306 265
-0.016092092 0.70599997 -0.030946331 1.1787229e-38 307 265
-0.014854239 0.70599997 -0.030946331 1.1786512e-38 308 265
-0.013616386 0.70599997 -0.030946331 1.1786512e-38 309 265
-0.012378532 0.70599997 -0.030946331 1.1695035e-38 310 265
-0.011140679 0.70599997 -0.030946331 1.1695035e-38 311 265
-0.0099028256 0.70599997 -0.030946331 1.1695035e-38 312 265
-0.0086649731 0.70599997 -0.030946331 1.1602841e-38 313 265
-0.0074271196 0.70599997 -0.030946331 1.1601765e-38 314 265
-0.0061980332 0.70700002 -0.030990168 1.1601765e-38 315 265
-0.0049584266 0.70700002 -0.030990168 1.1509571e-38 316 265
-0.0037188199 0.70700002 -0.030990168 1.1417376e-38 317 265
-0.0024792133 0.70700002 -0.030990168 1.1508853e-38 318 265
-0.0012396066 0.70700002 -0.030990168 1.1416659e-38 319 265
0 0.708 -0.031034 1.1324823e-38 320 265
0.00124136 0.708 -0.031034 1.1140794e-38 321 265
0.0024897333 0.70999998 -0.031121666 1.1048599e-38 322 265
0.0037345996 0.70999998 -0.031121666 1.1048599e-38 323 265
0.0049794666 0.70999998 -0.031121666 1.0957123e-38 324 265
0.0062330998 0.71100003 -0.031165501 1.1049317e-38 325 265
0.0074797203 0.71100003 -0.031165501 1.0956046e-38 326 265
0.0087508867 0.713 -0.031253166 1.0956046e-38 327 265
0.01001504 0.71399999 -0.031296998 1.1047164e-38 328 265
0.011266919 0.71399999 -0.031296998 1.0863135e-38 329 265
0.012518799 0.71399999 -0.031296998 1.0863135e-38 330 265
0.013809253 0.71600002 -0.031384666 1.0863135e-38 331 265
0.01506464 0.71600002 -0.031384666 1.0771299e-38 332 265
0.016342819 0.71700001 -0.031428497 1.0771299e-38 333 265
0.017649053 0.71899998 -0.031516165 1.0771299e-38 334 265
0.018935999 0.72000003 -0.03156 1.0771299e-38 335 265
0.020254506 0.722 -0.031647664 1.0771299e-38 336 265
0.021550218 0.72299999 -0.031691495 1.0863852e-38 337 265
0.022880999 0.72500002 -0.031779166 1.1048958e-38 338 265
0.024218792 0.727 -0.03186683 1.0956405e-38 339 265
0.025493465 0.727 -0.03186683 1.1509959e-38 340 265
0.026768139 0.727 -0.03186683 1.3999241e-38 341 265
-0.0479712 0.72000003 -0.0328224 1.4744406e-38 282 266
-0.0467088 0.72000003 -0.0328224 1.1886342e-38 283 266
-0.045446403 0.72000003 -0.0328224 9.3934249e-39 284 266
-0.044306733 0.722 -0.032913569 9.8547632e-39 285 266
-0.042742759 0.71700001 -0.032685637 1.0592292e-38 286 266
-0.041427758 0.71600002 -0.032640055 1.0961069e-38 287 266
-0.040060159 0.71399999 -0.032548878 1.1056133e-38 288 266
-0.038753927 0.713 -0.032503292 1.1517104e-38 289 266
-0.037398599 0.71100003 -0.032412119 1.2159594e-38 290 266
-0.036101133 0.70999998 -0.032366529 1.2159594e-38 291 266
-0.034856264 0.70999998 -0.032366529 1.2526577e-38 292 266
-0.033516716 0.708 -0.03227536 1.2526577e-38 293 266
-0.032229774 0.70700002 -0.032229774 1.2250712e-38 294 266
-0.030946331 0.70599997 -0.032184184 1.2250712e-38 295 266
-0.029708479 0.70599997 -0.032184184 1.2158159e-38 296 266
-0.028470624 0.70599997 -0.032184184 1.1881935e-38 297 266
-0.027232772 0.70599997 -0.032184184 1.1881935e-38 298 266
-0.025994917 0.70599997 -0.032184184 1.1697188e-38 299 266
-0.024757065 0.70599997 -0.032184184 1.18805e-38 300 266
-0.023519212 0.70599997 -0.032184184 1.1788306e-38 301 266
-0.022281358 0.70599997 -0.032184184 1.1604635e-38 302 266
-0.021043506 0.70599997 -0.032184184 1.151244e-38 303 266
-0.019805651 0.70599997 -0.032184184 1.1603917e-38 304 266
-0.018567799 0.70599997 -0.032184184 1.1603917e-38 305 266
-0.017329946 0.70599997 -0.032184184 1.1787229e-38 306 266
-0.016092092 0.70599997 -0.032184184 1.1695035e-38 307 266
-0.014854239 0.70599997 -0.032184184 1.1694318e-38 308 266
-0.013616386 0.70599997 -0.032184184 1.1786512e-38 309 266
-0.012378532 0.70599997 -0.032184184 1.1511723e-38 310 266
-0.011140679 0.70599997 -0.032184184 1.1511723e-38 311 266
-0.0099028256 0.70599997 -0.032184184 1.1695035e-38 312 266
-0.0086649731 0.70599997 -0.032184184 1.1602841e-38 313 266
-0.0074271196 0.70599997 -0.032184184 1.1602482e-38 314 266
-0.0061980332 0.70700002 -0.032229774 1.1326258e-38 315 266
-0.0049584266 0.70700002 -0.032229774 1.1508853e-38 316 266
-0.0037188199 0.70700002 -0.032229774 1.1508853e-38 317 266
-0.0024792133 0.70700002 -0.032229774 1.1324823e-38 318 266
-0.0012396066 0.70700002 -0.032229774 1.1324823e-38 319 266
0 0.708 -0.03227536 1.1324106e-38 320 266
0.00124136 0.708 -0.03227536 1.1231912e-38 321 266
0.0024897333 0.70999998 -0.032366529 1.1048599e-38 322 266
0.0037345996 0.70999998 -0.032366529 1.1140794e-38 323 266
0.0049864799 0.71100003 -0.032412119 1.0957123e-38 324 266
0.0062330998 0.71100003 -0.032412119 1.1049317e-38 325 266
0.0075007593 0.713 -0.032503292 1.0956046e-38 326 266
0.0087508867 0.713 -0.032503292 1.0863852e-38 327 266
0.01001504 0.71399999 -0.032548878 1.1047164e-38 328 266
0.011266919 0.71399999 -0.032548878 1.1047164e-38 329 266
0.012553867 0.71600002 -0.032640055 1.0863135e-38 330 266
0.013809253 0.71600002 -0.032640055 1.0863135e-38 331 266
0.015085679 0.71700001 -0.032685637 1.0587987e-38 332 266
0.016342819 0.71700001 -0.032685637 1.0495793e-38 333 266
0.017649053 0.71899998 -0.032776814 1.0771299e-38 334 266
0.018935999 0.72000003 -0.0328224 1.0771299e-38 335 266
0.020254506 0.722 -0.032913569 1.0862776e-38 336 266
0.021550218 0.72299999 -0.032959159 1.1139359e-38 337 266
0.022880999 0.72500002 -0.033050332 1.0865646e-38 338 266
0.024218792 0.727 -0.033141505 1.1234064e-38 339 266
0.025493465 0.727 -0.033141505 1.2245723e-38 340 266
-0.0467088 0.72000003 -0.034084801 1.3177448e-38 283 267
-0.045446403 0.72000003 -0.034084801 1.1790141e-38 284 267
-0.044183999 0.72000003 -0.034084801 1.1052218e-38 285 267
-0.042742759 0.71700001 -0.033942781 1.1146175e-38 286 267
-0.041427758 0.71600002 -0.03389544 1.1238369e-38 287 267
-0.040060159 0.71399999 -0.033800758 1.1607863e-38 288 267
-0.038753927 0.713 -0.033753417 1.1792252e-38 289 267
-0.037398599 0.71100003 -0.033658739 1.2159594e-38 290 267
-0.036101133 0.70999998 -0.033611398 1.2159594e-38 291 267
-0.034856264 0.70999998 -0.033611398 1.2250712e-38 292 267
-0.033516716 0.708 -0.033516716 1.2250712e-38 293 267
-0.032229774 0.70700002 -0.033469379 1.2067399e-38 294 267
-0.030946331 0.70599997 -0.033422034 1.1974846e-38 295 267
-0.029708479 0.70599997 -0.033422034 1.2065965e-38 296 267
-0.028470624 0.70599997 -0.033422034 1.1881935e-38 297 267
-0.027232772 0.70599997 -0.033422034 1.1972694e-38 298 267
-0.025994917 0.70599997 -0.033422034 1.18805e-38 299 267
-0.024757065 0.70599997 -0.033422034 1.1788306e-38 300 267
-0.023519212 0.70599997 -0.033422034 1.1788306e-38 301 267
-0.022281358 0.70599997 -0.033422034 1.1603917e-38 302 267
-0.021043506 0.70599997 -0.033422034 1.1603917e-38 303 267
-0.019805651 0.70599997 -0.033422034 1.1603917e-38 304 267
-0.018567799 0.70599997 -0.033422034 1.1603917e-38 305 267
-0.017329946 0.70599997 -0.033422034 1.1695035e-38 306 267
-0.016092092 0.70599997 -0.033422034 1.1602841e-38 307 267
-0.014854239 0.70599997 -0.033422034 1.1695035e-38 308 267
-0.013616386 0.70599997 -0.033422034 1.1695035e-38 309 267
-0.012378532 0.70599997 -0.033422034 1.1511723e-38 310 267
-0.011140679 0.70599997 -0.033422034 1.1511723e-38 311 267
-0.0099028256 0.70599997 -0.033422034 1.1511723e-38 312 267
-0.0086649731 0.70599997 -0.033422034 1.1419529e-38 313 267
-0.0074271196 0.70599997 -0.033422034 1.1601765e-38 314 267
-0.0061980332 0.70700002 -0.033469379 1.1417376e-38 315 267
-0.0049584266 0.70700002 -0.033469379 1.1416659e-38 316 267
-0.0037188199 0.70700002 -0.033469379 1.1416659e-38 317 267
-0.0024792133 0.70700002 -0.033469379 1.1324823e-38 318 267
-0.00124136 0.708 -0.033516716 1.1140794e-38 319 267
0 0.708 -0.033516716 1.1231912e-38 320 267
0.0012448666 0.70999998 -0.033611398 1.1324106e-38 321 267
0.0024897333 0.70999998 -0.033611398 1.1049317e-38 322 267
0.0037345996 0.70999998 -0.033611398 1.0957123e-38 323 267
0.0049864799 0.71100003 -0.033658739 1.0956046e-38 324 267
0.0062330998 0.71100003 -0.033658739 1.0956046e-38 325 267
0.0075007593 0.713 -0.033753417 1.0956046e-38 326 267
0.0087631596 0.71399999 -0.033800758 1.0863852e-38 327 267
0.010043093 0.71600002 -0.03389544 1.1047164e-38 328 267
0.01129848 0.71600002 -0.03389544 1.0863135e-38 329 267
0.012553867 0.71600002 -0.03389544 1.0863135e-38 330 267
0.013828539 0.71700001 -0.033942781 1.0863135e-38 331 267
0.015085679 0.71700001 -0.033942781 1.0587987e-38 332 267
0.016388407 0.71899998 -0.03403746 1.0587987e-38 333 267
0.017673599 0.72000003 -0.034084801 1.0771299e-38 334 267
0.0189886 0.722 -0.034179479 1.0863852e-38 335 267
0.020254506 0.722 -0.034179479 1.1047164e-38 336 267
0.021550218 0.72299999 -0.03422682 1.1139359e-38 337 267
0.022880999 0.72500002 -0.034321502 1.1232988e-38 338 267
0.024218792 0.727 -0.03441618 1.1878356e-38 339 267
0.025493465 0.727 -0.03441618 1.2893989e-38 340 267
-0.045446403 0.72000003 -0.035347197 1.2619901e-38 284 268
-0.044183999 0.72000003 -0.035347197 1.1421716e-38 285 268
-0.042861983 0.71899998 -0.035298105 1.1606428e-38 286 268
-0.041427758 0.71600002 -0.035150826 1.1698981e-38 287 268
-0.040060159 0.71399999 -0.035052639 1.1700057e-38 288 268
-0.038808275 0.71399999 -0.035052639 1.1792252e-38 289 268
-0.037503798 0.713 -0.035003547 1.2159594e-38 290 268
-0.036253672 0.713 -0.035003547 1.2159594e-38 291 268
-0.034856264 0.70999998 -0.034856264 1.2250712e-38 292 268
-0.033611398 0.70999998 -0.034856264 1.2250712e-38 293 268
-0.03227536 0.708 -0.034758076 1.2158517e-38 294 268
-0.030990168 0.70700002 -0.034708988 1.2065965e-38 295 268
-0.029750559 0.70700002 -0.034708988 1.2065247e-38 296 268
-0.028470624 0.70599997 -0.034659892 1.1973053e-38 297 268
-0.027232772 0.70599997 -0.034659892 1.18805e-38 298 268
-0.02603174 0.70700002 -0.034708988 1.1788306e-38 299 268
-0.024792133 0.70700002 -0.034708988 1.1787947e-38 300 268
-0.023552528 0.70700002 -0.034708988 1.1603917e-38 301 268
-0.022281358 0.70599997 -0.034659892 1.1603917e-38 302 268
-0.021043506 0.70599997 -0.034659892 1.1603917e-38 303 268
-0.019833706 0.70700002 -0.034708988 1.1603917e-38 304 268
-0.018594101 0.70700002 -0.034708988 1.1603917e-38 305 268
-0.017329946 0.70599997 -0.034659892 1.1695035e-38 306 268
-0.016092092 0.70599997 -0.034659892 1.1695035e-38 307 268
-0.014854239 0.70599997 -0.034659892 1.1602841e-38 308 268
-0.013616386 0.70599997 -0.034659892 1.1695035e-38 309 268
-0.012378532 0.70599997 -0.034659892 1.1419529e-38 310 268
-0.011140679 0.70599997 -0.034659892 1.1419529e-38 311 268
-0.0099028256 0.70599997 -0.034659892 1.141917e-38 312 268
-0.0086649731 0.70599997 -0.034659892 1.1326976e-38 313 268
-0.0074376399 0.70700002 -0.034708988 1.1509571e-38 314 268
-0.0061980332 0.70700002 -0.034708988 1.1324823e-38 315 268
-0.0049584266 0.70700002 -0.034708988 1.1324823e-38 316 268
-0.0037188199 0.70700002 -0.034708988 1.1324823e-38 317 268
-0.00248272 0.708 -0.034758076 1.1140794e-38 318 268
-0.00124136 0.708 -0.034758076 1.1140794e-38 319 268
0 0.708 -0.034758076 1.1140794e-38 320 268
0.0012448666 0.70999998 -0.034856264 1.1140794e-38 321 268
0.0024897333 0.70999998 -0.034856264 1.1140794e-38 322 268
0.0037398601 0.71100003 -0.034905359 1.1048241e-38 323 268
0.0049864799 0.71100003 -0.034905359 1.1139359e-38 324 268
0.0062330998 0.71100003 -0.034905359 1.1047164e-38 325 268
0.0075007593 0.713 -0.035003547 1.1047164e-38 326 268
0.0087631596 0.71399999 -0.035052639 1.0863135e-38 327 268
0.010043093 0.71600002 -0.035150826 1.1047164e-38 328 268
0.01131426 0.71700001 -0.035199918 1.1047164e-38 329 268
0.0125714 0.71700001 -0.035199918 1.0587987e-38 330 268
0.013828539 0.71700001 -0.035199918 1.0587987e-38 331 268
0.015085679 0.71700001 -0.035199918 1.0771299e-38 332 268
0.016388407 0.71899998 -0.035298105 1.0771299e-38 333 268
0.017673599 0.72000003 -0.035347197 1.1047164e-38 334 268
0.0189886 0.722 -0.035445385 1.1047164e-38 335 268
0.020254506 0.722 -0.035445385 1.1139e-38 336 268
0.021550218 0.72299999 -0.035494477 1.1231194e-38 337 268
0.02281788 0.72299999 -0.035494477 1.1140803e-38 338 268
0.024152167 0.72500002 -0.035592668 1.3169107e-38 339 268
0.025423333 0.72500002 -0.035592668 1.3449682e-38 340 268
-0.045572639 0.722 -0.03671129 1.3634778e-38 284 269
-0.044183999 0.72000003 -0.036609601 1.1975256e-38 285 269
-0.042921603 0.72000003 -0.036609601 1.1974129e-38 286 269
-0.041485619 0.71700001 -0.036457058 1.2066682e-38 287 269
-0.040172372 0.71600002 -0.036406212 1.2067041e-38 288 269
-0.038808275 0.71399999 -0.036304519 1.2067041e-38 289 269
-0.037556399 0.71399999 -0.036304519 1.2342906e-38 290 269
-0.036253672 0.713 -0.036253672 1.2250712e-38 291 269
-0.034905359 0.71100003 -0.036151983 1.2434024e-38 292 269
-0.033611398 0.70999998 -0.036101133 1.2249994e-38 293 269
-0.03227536 0.708 -0.03599944 1.2065965e-38 294 269
-0.030990168 0.70700002 -0.035948593 1.2158159e-38 295 269
-0.029750559 0.70700002 -0.035948593 1.2065965e-38 296 269
-0.028510952 0.70700002 -0.035948593 1.1881935e-38 297 269
-0.027271347 0.70700002 -0.035948593 1.18805e-38 298 269
-0.02603174 0.70700002 -0.035948593 1.1788306e-38 299 269
-0.024792133 0.70700002 -0.035948593 1.1787947e-38 300 269
-0.023552528 0.70700002 -0.035948593 1.1603917e-38 301 269
-0.022312919 0.70700002 -0.035948593 1.151244e-38 302 269
-0.021073313 0.70700002 -0.035948593 1.151244e-38 303 269
-0.019833706 0.70700002 -0.035948593 1.1603917e-38 304 269
-0.018594101 0.70700002 -0.035948593 1.1603917e-38 305 269
-0.017354494 0.70700002 -0.035948593 1.1695035e-38 306 269
-0.016092092 0.70599997 -0.035897743 1.1602841e-38 307 269
-0.014854239 0.70599997 -0.035897743 1.1694318e-38 308 269
-0.013616386 0.70599997 -0.035897743 1.1694318e-38 309 269
-0.012378532 0.70599997 -0.035897743 1.141917e-38 310 269
-0.011140679 0.70599997 -0.035897743 1.1326976e-38 311 269
-0.0099028256 0.70599997 -0.035897743 1.1418453e-38 312 269
-0.0086649731 0.70599997 -0.035897743 1.1326258e-38 313 269
-0.0074376399 0.70700002 -0.035948593 1.1508853e-38 314 269
-0.0061980332 0.70700002 -0.035948593 1.1416659e-38 315 269
-0.0049584266 0.70700002 -0.035948593 1.1324823e-38 316 269
-0.0037188199 0.70700002 -0.035948593 1.1324823e-38 317 269
-0.00248272 0.708 -0.03599944 1.1141511e-38 318 269
-0.00124136 0.708 -0.03599944 1.1049317e-38 319 269
0 0.70999998 -0.036101133 1.1140794e-38 320 269
0.0012448666 0.70999998 -0.036101133 1.1140794e-38 321 269
0.0024897333 0.70999998 -0.036101133 1.1140794e-38 322 269
0.0037398601 0.71100003 -0.036151983 1.1048241e-38 323 269
0.0049864799 0.71100003 -0.036151983 1.1047164e-38 324 269
0.0062506334 0.713 -0.036253672 1.1047164e-38 325 269
0.0075112795 0.71399999 -0.036304519 1.0863135e-38 326 269
0.0087877065 0.71600002 -0.036406212 1.1047164e-38 327 269
0.010043093 0.71600002 -0.036406212 1.0863135e-38 328 269
0.01131426 0.71700001 -0.036457058 1.0863135e-38 329 269
0.0125714 0.71700001 -0.036457058 1.0771299e-38 330 269
0.013828539 0.71700001 -0.036457058 1.0863852e-38 331 269
0.015085679 0.71700001 -0.036457058 1.0771299e-38 332 269
0.016388407 0.71899998 -0.036558751 1.0863852e-38 333 269
0.017722692 0.722 -0.03671129 1.1139359e-38 334 269
0.0189886 0.722 -0.03671129 1.1139359e-38 335 269
0.020254506 0.722 -0.03671129 1.1139359e-38 336 269
0.021550218 0.72299999 -0.036762137 1.1231553e-38 337 269
0.02281788 0.72299999 -0.036762137 1.1692186e-38 338 269
0.024152167 0.72500002 -0.036863834 1.4273664e-38 339 269
0.025423333 0.72500002 -0.036863834 1.3819556e-38 340 269
-0.045572639 0.722 -0.0379772 1.4373078e-38 284 270
-0.044306733 0.722 -0.0379772 1.2621719e-38 285 270
-0.042921603 0.72000003 -0.037871998 1.2251436e-38 286 270
-0.041601337 0.71899998 -0.037819397 1.1882294e-38 287 270
-0.040228479 0.71700001 -0.037714198 1.2250353e-38 288 270
-0.038916986 0.71600002 -0.037661601 1.2250353e-38 289 270
-0.037556399 0.71399999 -0.037556399 1.2067399e-38 290 270
-0.036304519 0.71399999 -0.037556399 1.2067399e-38 291 270
-0.035003547 0.713 -0.037503798 1.2157441e-38 292 270
-0.033658739 0.71100003 -0.037398599 1.2157441e-38 293 270
-0.03227536 0.708 -0.0372408 1.1881935e-38 294 270
-0.031034 0.708 -0.0372408 1.1881935e-38 295 270
-0.029750559 0.70700002 -0.037188202 1.2065247e-38 296 270
-0.028510952 0.70700002 -0.037188202 1.1973053e-38 297 270
-0.027271347 0.70700002 -0.037188202 1.1971977e-38 298 270
-0.02603174 0.70700002 -0.037188202 1.1879782e-38 299 270
-0.024792133 0.70700002 -0.037188202 1.1603917e-38 300 270
-0.023552528 0.70700002 -0.037188202 1.1603917e-38 301 270
-0.022312919 0.70700002 -0.037188202 1.151244e-38 302 270
-0.021073313 0.70700002 -0.037188202 1.151244e-38 303 270
-0.019833706 0.70700002 -0.037188202 1.1603917e-38 304 270
-0.018594101 0.70700002 -0.037188202 1.1511723e-38 305 270
-0.017354494 0.70700002 -0.037188202 1.1695035e-38 306 270
-0.016092092 0.70599997 -0.037135597 1.1602841e-38 307 270
-0.014854239 0.70599997 -0.037135597 1.1602841e-38 308 270
-0.013616386 0.70599997 -0.037135597 1.1602841e-38 309 270
-0.012378532 0.70599997 -0.037135597 1.1418453e-38 310 270
-0.011140679 0.70599997 -0.037135597 1.1326258e-38 311 270
-0.0099168532 0.70700002 -0.037188202 1.1326258e-38 312 270
-0.008677247 0.70700002 -0.037188202 1.1326258e-38 313 270
-0.0074376399 0.70700002 -0.037188202 1.1417376e-38 314 270
-0.0061980332 0.70700002 -0.037188202 1.1324823e-38 315 270
-0.0049584266 0.70700002 -0.037188202 1.1141511e-38 316 270
-0.00372408 0.708 -0.0372408 1.1141511e-38 317 270
-0.00248272 0.708 -0.0372408 1.1140794e-38 318 270
-0.0012448666 0.70999998 -0.037345998 1.1140794e-38 319 270
0 0.70999998 -0.037345998 1.1140794e-38 320 270
0.0012448666 0.70999998 -0.037345998 1.1048599e-38 321 270
0.0024932399 0.71100003 -0.037398599 1.1048241e-38 322 270
0.0037398601 0.71100003 -0.037398599 1.1048241e-38 323 270
0.0049864799 0.71100003 -0.037398599 1.1139359e-38 324 270
0.0062506334 0.713 -0.037503798 1.1047164e-38 325 270
0.0075112795 0.71399999 -0.037556399 1.0863135e-38 326 270
0.0087877065 0.71600002 -0.037661601 1.0863135e-38 327 270
0.010043093 0.71600002 -0.037661601 1.0771299e-38 328 270
0.01131426 0.71700001 -0.037714198 1.0771299e-38 329 270
0.0125714 0.71700001 -0.037714198 1.0771299e-38 330 270
0.013867113 0.71899998 -0.037819397 1.0771299e-38 331 270
0.01512776 0.71899998 -0.037819397 1.1047164e-38 332 270
0.0164112 0.72000003 -0.037871998 1.1047164e-38 333 270
0.017722692 0.722 -0.0379772 1.1139359e-38 334 270
0.0189886 0.722 -0.0379772 1.1139359e-38 335 270
0.020254506 0.722 -0.0379772 1.1231194e-38 336 270
0.021550218 0.72299999 -0.038029801 1.1692165e-38 337 270
0.02281788 0.72299999 -0.038029801 1.2245373e-38 338 270
0.024085538 0.72299999 -0.038029801 1.4642819e-38 339 270
0.025353199 0.72299999 -0.038029801 1.3728085e-38 340 270
0.026620859 0.72299999 -0.038029801 1.3451497e-38 341 270
-0.044306733 0.722 -0.039243106 1.3544046e-38 285 271
-0.042921603 0.72000003 -0.039134402 1.3172329e-38 286 271
-0.041601337 0.71899998 -0.039080046 1.2065981e-38 287 271
-0.040228479 0.71700001 -0.038971342 1.2526218e-38 288 271
-0.038916986 0.71600002 -0.038916986 1.2526218e-38 289 271
-0.037556399 0.71399999 -0.038808275 1.2250712e-38 290 271
-0.036304519 0.71399999 -0.038808275 1.2158517e-38 291 271
-0.035003547 0.713 -0.038753927 1.2065247e-38 292 271
-0.033658739 0.71100003 -0.038645219 1.2065247e-38 293 271
-0.032366529 0.70999998 -0.038590867 1.1789382e-38 294 271
-0.031034 0.708 -0.038482159 1.1789382e-38 295 271
-0.02979264 0.708 -0.038482159 1.1697188e-38 296 271
-0.02855128 0.708 -0.038482159 1.1697188e-38 297 271
-0.027271347 0.70700002 -0.038427804 1.1697188e-38 298 271
-0.02603174 0.70700002 -0.038427804 1.1697188e-38 299 271
-0.024792133 0.70700002 -0.038427804 1.1604635e-38 300 271
-0.023552528 0.70700002 -0.038427804 1.151244e-38 301 271
-0.022312919 0.70700002 -0.038427804 1.1603917e-38 302 271
-0.021073313 0.70700002 -0.038427804 1.1603917e-38 303 271
-0.019833706 0.70700002 -0.038427804 1.1603917e-38 304 271
-0.018594101 0.70700002 -0.038427804 1.1603917e-38 305 271
-0.017354494 0.70700002 -0.038427804 1.1511723e-38 306 271
-0.016114887 0.70700002 -0.038427804 1.1511723e-38 307 271
-0.014854239 0.70599997 -0.038373452 1.1511723e-38 308 271
-0.013616386 0.70599997 -0.038373452 1.1419529e-38 309 271
-0.012378532 0.70599997 -0.038373452 1.1418453e-38 310 271
-0.011156459 0.70700002 -0.038427804 1.1326258e-38 311 271
-0.0099168532 0.70700002 -0.038427804 1.1234782e-38 312 271
-0.008677247 0.70700002 -0.038427804 1.1142587e-38 313 271
-0.0074376399 0.70700002 -0.038427804 1.1141511e-38 314 271
-0.0061980332 0.70700002 -0.038427804 1.1141511e-38 315 271
-0.0049654399 0.708 -0.038482159 1.1141511e-38 316 271
-0.00372408 0.708 -0.038482159 1.1049317e-38 317 271
-0.00248272 0.708 -0.038482159 1.1140794e-38 318 271
-0.0012448666 0.70999998 -0.038590867 1.1140794e-38 319 271
0 0.70999998 -0.038590867 1.1231912e-38 320 271
0.00124662 0.71100003 -0.038645219 1.1231912e-38 321 271
0.0024932399 0.71100003 -0.038645219 1.1048241e-38 322 271
0.0037398601 0.71100003 -0.038645219 1.0956046e-38 323 271
0.0049864799 0.71100003 -0.038645219 1.1047164e-38 324 271
0.0062506334 0.713 -0.038753927 1.0863135e-38 325 271
0.0075112795 0.71399999 -0.038808275 1.1046447e-38 326 271
0.0087877065 0.71600002 -0.038916986 1.1046447e-38 327 271
0.01005712 0.71700001 -0.038971342 1.0863135e-38 328 271
0.01131426 0.71700001 -0.038971342 1.0863135e-38 329 271
0.0125714 0.71700001 -0.038971342 1.0863135e-38 330 271
0.013867113 0.71899998 -0.039080046 1.0863135e-38 331 271
0.01512776 0.71899998 -0.039080046 1.1138641e-38 332 271
0.016456785 0.722 -0.039243106 1.1138641e-38 333 271
0.017722692 0.722 -0.039243106 1.1048241e-38 334 271
0.019014901 0.72299999 -0.039297458 1.1048241e-38 335 271
0.020282559 0.72299999 -0.039297458 1.1140794e-38 336 271
0.021550218 0.72299999 -0.039297458 1.178616e-38 337 271
0.02281788 0.72299999 -0.039297458 1.2431572e-38 338 271
0.024052227 0.722 -0.039243106 1.4275124e-38 339 271
0.025318133 0.722 -0.039243106 1.3083084e-38 340 271
0.026584039 0.722 -0.039243106 1.3083084e-38 341 271
-0.042921603 0.72000003 -0.040396802 1.3910625e-38 286 272
-0.041601337 0.71899998 -0.040340692 1.2250745e-38 287 272
-0.040228479 0.71700001 -0.040228479 1.2709889e-38 288 272
-0.038916986 0.71600002 -0.040172372 1.2617695e-38 289 272
-0.037661601 0.71600002 -0.040172372 1.2067399e-38 290 272
-0.036304519 0.71399999 -0.040060159 1.1882652e-38 291 272
-0.035052639 0.71399999 -0.040060159 1.1973053e-38 292 272
-0.033753417 0.713 -0.040004052 1.18805e-38 293 272
-0.032412119 0.71100003 -0.039891839 1.1697188e-38 294 272
-0.031121666 0.70999998 -0.039835732 1.1697188e-38 295 272
-0.02979264 0.708 -0.039723519 1.1697188e-38 296 272
-0.02855128 0.708 -0.039723519 1.1604993e-38 297 272
-0.027309919 0.708 -0.039723519 1.1697188e-38 298 272
-0.026068559 0.708 -0.039723519 1.1697188e-38 299 272
-0.024827199 0.708 -0.039723519 1.1421322e-38 300 272
-0.023585839 0.708 -0.039723519 1.1421322e-38 301 272
-0.022312919 0.70700002 -0.039667413 1.151244e-38 302 272
-0.021073313 0.70700002 -0.039667413 1.151244e-38 303 272
-0.019833706 0.70700002 -0.039667413 1.151244e-38 304 272
-0.018594101 0.70700002 -0.039667413 1.151244e-38 305 272
-0.017354494 0.70700002 -0.039667413 1.151244e-38 306 272
-0.016114887 0.70700002 -0.039667413 1.1235858e-38 307 272
-0.014854239 0.70599997 -0.039611302 1.1419529e-38 308 272
-0.013616386 0.70599997 -0.039611302 1.1326976e-38 309 272
-0.012378532 0.70599997 -0.039611302 1.1326976e-38 310 272
-0.011156459 0.70700002 -0.039667413 1.1326976e-38 311 272
-0.0099168532 0.70700002 -0.039667413 1.1233705e-38 312 272
-0.008677247 0.70700002 -0.039667413 1.1141511e-38 313 272
-0.0074376399 0.70700002 -0.039667413 1.1141511e-38 314 272
-0.0062067998 0.708 -0.039723519 1.1141511e-38 315 272
-0.0049654399 0.708 -0.039723519 1.1141511e-38 316 272
-0.0037345996 0.70999998 -0.039835732 1.1141511e-38 317 272
-0.0024897333 0.70999998 -0.039835732 1.1140794e-38 318 272
-0.0012448666 0.70999998 -0.039835732 1.1140794e-38 319 272
0 0.70999998 -0.039835732 1.1140794e-38 320 272
0.00124662 0.71100003 -0.039891839 1.0956046e-38 321 272
0.0024932399 0.71100003 -0.039891839 1.1139359e-38 322 272
0.0037398601 0.71100003 -0.039891839 1.1047164e-38 323 272
0.0050005065 0.713 -0.040004052 1.1047164e-38 324 272
0.0062593995 0.71399999 -0.040060159 1.0863135e-38 325 272
0.00753232 0.71600002 -0.040172372 1.1047164e-38 326 272
0.0087999795 0.71700001 -0.040228479 1.1139359e-38 327 272
0.01005712 0.71700001 -0.040228479 1.1047164e-38 328 272
0.01131426 0.71700001 -0.040228479 1.1047164e-38 329 272
0.012606465 0.71899998 -0.040340692 1.1047164e-38 330 272
0.013867113 0.71899998 -0.040340692 1.1047164e-38 331 272
0.01512776 0.71899998 -0.040340692 1.1322312e-38 332 272
0.016456785 0.722 -0.040509012 1.1414506e-38 333 272
0.017722692 0.722 -0.040509012 1.1048241e-38 334 272
0.019014901 0.72299999 -0.040565118 1.1048241e-38 335 272
0.020282559 0.72299999 -0.040565118 1.1325182e-38 336 272
0.021550218 0.72299999 -0.040565118 1.1970551e-38 337 272
0.02281788 0.72299999 -0.040565118 1.2617045e-38 338 272
0.024052227 0.722 -0.040509012 1.3631557e-38 339 272
0.025318133 0.722 -0.040509012 1.3081288e-38 340 272
-0.041601337 0.71899998 -0.041601337 1.2621348e-38 287 273
-0.040228479 0.71700001 -0.041485619 1.2985754e-38 288 273
-0.038916986 0.71600002 -0.041427758 1.270953e-38 289 273
-0.037661601 0.71600002 -0.041427758 1.2617695e-38 290 273
-0.036406212 0.71600002 -0.041427758 1.2433306e-38 291 273
-0.035052639 0.71399999 -0.041312039 1.2248559e-38 292 273
-0.033753417 0.713 -0.041254178 1.206453e-38 293 273
-0.032412119 0.71100003 -0.041138459 1.18805e-38 294 273
-0.031121666 0.70999998 -0.041080594 1.18805e-38 295 273
-0.029876797 0.70999998 -0.041080594 1.1788306e-38 296 273
-0.02855128 0.708 -0.040964879 1.1788306e-38 297 273
-0.027309919 0.708 -0.040964879 1.1604993e-38 298 273
-0.026068559 0.708 -0.040964879 1.1604993e-38 299 273
-0.024827199 0.708 -0.040964879 1.1421322e-38 300 273
-0.023585839 0.708 -0.040964879 1.1421322e-38 301 273
-0.022312919 0.70700002 -0.040907022 1.1604993e-38 302 273
-0.021073313 0.70700002 -0.040907022 1.1604993e-38 303 273
-0.01986176 0.708 -0.040964879 1.151244e-38 304 273
-0.018594101 0.70700002 -0.040907022 1.151244e-38 305 273
-0.017354494 0.70700002 -0.040907022 1.1511723e-38 306 273
-0.016114887 0.70700002 -0.040907022 1.1511723e-38 307 273
-0.01487528 0.70700002 -0.040907022 1.1418453e-38 308 273
-0.013635674 0.70700002 -0.040907022 1.1418453e-38 309 273
-0.012396066 0.70700002 -0.040907022 1.1326258e-38 310 273
-0.011156459 0.70700002 -0.040907022 1.1326258e-38 311 273
-0.0099168532 0.70700002 -0.040907022 1.1326258e-38 312 273
-0.008689519 0.708 -0.040964879 1.1234064e-38 313 273
-0.0074481601 0.708 -0.040964879 1.1142229e-38 314 273
-0.0062067998 0.708 -0.040964879 1.0958199e-38 315 273
-0.0049794666 0.70999998 -0.041080594 1.1141511e-38 316 273
-0.0037345996 0.70999998 -0.041080594 1.1141511e-38 317 273
-0.0024897333 0.70999998 -0.041080594 1.1324823e-38 318 273
-0.0012448666 0.70999998 -0.041080594 1.1140794e-38 319 273
0 0.71100003 -0.041138459 1.1323388e-38 320 273
0.00124662 0.71100003 -0.041138459 1.1323388e-38 321 273
0.0024932399 0.71100003 -0.041138459 1.1231194e-38 322 273
0.0037503797 0.713 -0.041254178 1.1231194e-38 323 273
0.0050075199 0.71399999 -0.041312039 1.1047164e-38 324 273
0.0062593995 0.71399999 -0.041312039 1.1139359e-38 325 273
0.00753232 0.71600002 -0.041427758 1.0956046e-38 326 273
0.0087999795 0.71700001 -0.041485619 1.0956046e-38 327 273
0.01005712 0.71700001 -0.041485619 1.0956046e-38 328 273
0.01134582 0.71899998 -0.041601337 1.0956046e-38 329 273
0.012606465 0.71899998 -0.041601337 1.1138641e-38 330 273
0.013867113 0.71899998 -0.041601337 1.1138641e-38 331 273
0.01512776 0.71899998 -0.041601337 1.1231194e-38 332 273
0.016456785 0.722 -0.041774917 1.1231194e-38 333 273
0.017747238 0.72299999 -0.041832779 1.1139359e-38 334 273
0.019014901 0.72299999 -0.041832779 1.1231553e-38 335 273
0.020282559 0.72299999 -0.041832779 1.105041e-38 336 273
0.021550218 0.72299999 -0.041832779 1.1880171e-38 337 273
0.022786319 0.722 -0.041774917 1.2251509e-38 338 273
0.024052227 0.722 -0.041774917 1.262065e-38 339 273
-0.040228479 0.71700001 -0.042742759 1.3355278e-38 288 274
-0.038916986 0.71600002 -0.042683143 1.2341126e-38 289 274
-0.037661601 0.71600002 -0.042683143 1.2526218e-38 290 274
-0.036406212 0.71600002 -0.042683143 1.2249635e-38 291 274
-0.035052639 0.71399999 -0.042563915 1.2065247e-38 292 274
-0.033800758 0.71399999 -0.042563915 1.1973053e-38 293 274
-0.032503292 0.713 -0.042504307 1.18805e-38 294 274
-0.031253166 0.713 -0.042504307 1.18805e-38 295 274
-0.029918881 0.71100003 -0.042385083 1.1604993e-38 296 274
-0.028631933 0.70999998 -0.042325463 1.1604993e-38 297 274
