# .PCD v.7 - Point Cloud Data file format
FIELDS x y z rgb imX imY
SIZE 4 4 4 4 4 4
TYPE F F F F F F
COUNT 1 1 1 1 1 1
WIDTH 840
HEIGHT 1
VIEWPOINT 0 0 0 1 0 0 0
POINTS 840
DATA ascii
0.0025142799 0.71700001 -0.0087999795 4.9821009e-39 322 247
0.0037714199 0.71700001 -0.0087999795 4.7977082e-39 323 247
0.0050425865 0.71899998 -0.0088245263 4.6129582e-39 324 247
0.0063120001 0.72000003 -0.0088367993 4.6129582e-39 325 247
0.0075954394 0.722 -0.0088613462 5.3483639e-39 326 247
0.0088613462 0.722 -0.0088613462 5.2558095e-39 327 247
0.01014128 0.72299999 -0.0088736191 4.7069742e-39 328 247
0.01140894 0.72299999 -0.0088736191 4.8913654e-39 329 247
0.012711667 0.72500002 -0.0088981669 2.8688447e-39 330 247
0.013982833 0.72500002 -0.0088981669 3.6986054e-39 331 247
-0.03186683 0.727 -0.010197386 1.3549826e-38 295 248
-0.030508002 0.72500002 -0.010169334 1.2721825e-38 296 248
-0.029236834 0.72500002 -0.010169334 1.2721825e-38 297 248
-0.027965667 0.72500002 -0.010169334 1.2261901e-38 298 248
-0.026620859 0.72299999 -0.01014128 1.143214e-38 299 248
-0.025318133 0.722 -0.010127253 1.078712e-38 300 248
-0.0239856 0.72000003 -0.010099201 9.5885781e-39 301 248
-0.022723202 0.72000003 -0.010099201 9.4041855e-39 302 248
-0.021460801 0.72000003 -0.010099201 9.0354043e-39 303 248
-0.020254506 0.722 -0.010127253 7.9319435e-39 304 248
-0.018935999 0.72000003 -0.010099201 7.5635211e-39 305 248
-0.017673599 0.72000003 -0.010099201 7.0110816e-39 306 248
-0.0164112 0.72000003 -0.010099201 6.6426592e-39 307 248
-0.0151488 0.72000003 -0.010099201 6.6419529e-39 308 248
-0.0138864 0.72000003 -0.010099201 6.7341486e-39 309 248
-0.012606465 0.71899998 -0.010085173 7.0100152e-39 310 248
-0.01131426 0.71700001 -0.01005712 7.1022108e-39 311 248
-0.010043093 0.71600002 -0.010043093 7.1022108e-39 312 248
-0.0087877065 0.71600002 -0.010043093 7.1022108e-39 313 248
-0.00753232 0.71600002 -0.010043093 7.1922526e-39 314 248
-0.0062769335 0.71600002 -0.010043093 7.0078614e-39 315 248
-0.0050215465 0.71600002 -0.010043093 6.7312829e-39 316 248
-0.00376616 0.71600002 -0.010043093 6.4543373e-39 317 248
-0.0025107733 0.71600002 -0.010043093 6.0866436e-39 318 248
-0.0012553866 0.71600002 -0.010043093 5.7182198e-39 319 248
0 0.71600002 -0.010043093 5.6263871e-39 320 248
0.0012553866 0.71600002 -0.010043093 5.442356e-39 321 248
0.0025142799 0.71700001 -0.01005712 5.1672138e-39 322 248
0.0037714199 0.71700001 -0.01005712 5.1672138e-39 323 248
0.0050425865 0.71899998 -0.010085173 5.1679355e-39 324 248
0.0063120001 0.72000003 -0.010099201 5.3523281e-39 325 248
0.0075954394 0.722 -0.010127253 5.628192e-39 326 248
0.0088613462 0.722 -0.010127253 5.628192e-39 327 248
0.01014128 0.72299999 -0.01014128 5.5363663e-39 328 248
0.01140894 0.72299999 -0.01014128 5.7207561e-39 329 248
0.012676599 0.72299999 -0.01014128 4.155971e-39 330 248
0.01394426 0.72299999 -0.01014128 3.2340147e-39 331 248
-0.033141505 0.727 -0.01147206 1.3825321e-38 294 249
-0.03186683 0.727 -0.01147206 1.3272148e-38 295 249
-0.030508002 0.72500002 -0.0114405 1.272217e-38 296 249
-0.029236834 0.72500002 -0.0114405 1.2353746e-38 297 249
-0.02788852 0.72299999 -0.01140894 1.1801279e-38 298 249
-0.026584039 0.722 -0.01139316 1.0878964e-38 299 249
-0.025318133 0.722 -0.01139316 1.0050998e-38 300 249
-0.0239856 0.72000003 -0.011361601 9.3134332e-39 301 249
-0.022723202 0.72000003 -0.011361601 9.0357701e-39 302 249
-0.021460801 0.72000003 -0.011361601 8.6673477e-39 303 249
-0.020198401 0.72000003 -0.011361601 7.8397478e-39 304 249
-0.018935999 0.72000003 -0.011361601 7.5635211e-39 305 249
-0.017649053 0.71899998 -0.01134582 6.9188859e-39 306 249
-0.016388407 0.71899998 -0.01134582 6.6426592e-39 307 249
-0.01512776 0.71899998 -0.01134582 6.8252652e-39 308 249
-0.013867113 0.71899998 -0.01134582 6.9174608e-39 309 249
-0.0125714 0.71700001 -0.01131426 7.3770026e-39 310 249
-0.01129848 0.71600002 -0.01129848 7.3770026e-39 311 249
-0.010043093 0.71600002 -0.01129848 7.3766467e-39 312 249
-0.0087631596 0.71399999 -0.011266919 7.2844511e-39 313 249
-0.0075112795 0.71399999 -0.011266919 7.2833721e-39 314 249
-0.0062593995 0.71399999 -0.011266919 7.0071439e-39 315 249
-0.0050075199 0.71399999 -0.011266919 6.6387285e-39 316 249
-0.0037556398 0.71399999 -0.011266919 6.3621417e-39 317 249
-0.0025107733 0.71600002 -0.01129848 5.9940836e-39 318 249
-0.0012553866 0.71600002 -0.01129848 5.9940836e-39 319 249
0 0.71600002 -0.01129848 5.442356e-39 320 249
0.0012553866 0.71600002 -0.01129848 5.3501603e-39 321 249
0.0025107733 0.71600002 -0.01129848 5.0757371e-39 322 249
0.0037714199 0.71700001 -0.01131426 5.1679327e-39 323 249
0.0050285598 0.71700001 -0.01131426 5.1679327e-39 324 249
0.0063032326 0.71899998 -0.01134582 5.2601283e-39 325 249
0.0075743999 0.72000003 -0.011361601 5.2601311e-39 326 249
0.0088613462 0.722 -0.01139316 5.2601311e-39 327 249
0.01014128 0.72299999 -0.01140894 5.351975e-39 328 249
0.01140894 0.72299999 -0.01140894 5.4441707e-39 329 249
0.012676599 0.72299999 -0.01140894 5.3516275e-39 330 249
0.01394426 0.72299999 -0.01140894 4.6137037e-39 331 249
-0.034463517 0.72799999 -0.012764266 1.548343e-38 293 250
-0.033141505 0.727 -0.012746733 1.2904067e-38 294 250
-0.031779166 0.72500002 -0.012711667 1.2996264e-38 295 250
-0.030423839 0.72299999 -0.012676599 1.2446648e-38 296 250
-0.029156178 0.72299999 -0.012676599 1.1801279e-38 297 250
-0.027849946 0.722 -0.012659066 1.1339569e-38 298 250
-0.026510401 0.72000003 -0.012624 1.0325777e-38 299 250
-0.025248 0.72000003 -0.012624 9.130837e-39 300 250
-0.023952285 0.71899998 -0.012606465 8.5780219e-39 301 250
-0.022691639 0.71899998 -0.012606465 8.5755178e-39 302 250
-0.021430992 0.71899998 -0.012606465 8.2992896e-39 303 250
-0.020170346 0.71899998 -0.012606465 7.8386786e-39 304 250
-0.018909698 0.71899998 -0.012606465 7.5620903e-39 305 250
-0.017599959 0.71700001 -0.0125714 6.917814e-39 306 250
-0.016342819 0.71700001 -0.0125714 6.8256183e-39 307 250
-0.015085679 0.71700001 -0.0125714 6.8245491e-39 308 250
-0.013828539 0.71700001 -0.0125714 6.8245491e-39 309 250
-0.012553867 0.71600002 -0.012553867 6.9163916e-39 310 250
-0.01129848 0.71600002 -0.012553867 6.9163916e-39 311 250
-0.01001504 0.71399999 -0.012518799 6.9171133e-39 312 250
-0.0087508867 0.713 -0.012501267 6.8249177e-39 313 250
-0.0075007593 0.713 -0.012501267 6.8245519e-39 314 250
-0.0062593995 0.71399999 -0.012518799 6.7319962e-39 315 250
-0.0050075199 0.71399999 -0.012518799 6.5468888e-39 316 250
-0.0037556398 0.71399999 -0.012518799 6.3621389e-39 317 250
-0.0025037599 0.71399999 -0.012518799 5.9029656e-39 318 250
-0.00125188 0.71399999 -0.012518799 5.7185729e-39 319 250
0 0.71399999 -0.012518799 5.3508792e-39 320 250
0.00125188 0.71399999 -0.012518799 5.3508792e-39 321 250
0.0025107733 0.71600002 -0.012553867 5.0750154e-39 322 250
0.00376616 0.71600002 -0.012553867 5.167211e-39 323 250
0.0050285598 0.71700001 -0.0125714 5.1672138e-39 324 250
0.0062857 0.71700001 -0.0125714 5.2594094e-39 325 250
0.0075638802 0.71899998 -0.012606465 5.1679355e-39 326 250
0.0088367993 0.72000003 -0.012624 5.0753811e-39 327 250
0.010127253 0.722 -0.012659066 5.1675824e-39 328 250
0.01139316 0.722 -0.012659066 5.259778e-39 329 250
0.012676599 0.72299999 -0.012676599 5.7189653e-39 330 250
0.01394426 0.72299999 -0.012676599 5.7189653e-39 331 250
-0.035690852 0.727 -0.014021406 1.4840562e-38 292 251
-0.03441618 0.727 -0.014021406 1.3457628e-38 293 251
-0.032959159 0.72299999 -0.01394426 1.2445589e-38 294 251
-0.031691495 0.72299999 -0.01394426 1.2353393e-38 295 251
-0.030381758 0.722 -0.013924973 1.1801992e-38 296 251
-0.029115854 0.722 -0.013924973 1.1064427e-38 297 251
-0.027772799 0.72000003 -0.0138864 1.0327212e-38 298 251
-0.02647358 0.71899998 -0.013867113 9.2212235e-39 299 251
-0.0251428 0.71700001 -0.013828539 9.1286748e-39 300 251
-0.02388566 0.71700001 -0.013828539 8.667698e-39 301 251
-0.02262852 0.71700001 -0.013828539 8.3904063e-39 302 251
-0.021371379 0.71700001 -0.013828539 8.2060164e-39 303 251
-0.020114239 0.71700001 -0.013828539 7.65393e-39 304 251
-0.018857099 0.71700001 -0.013828539 7.3777033e-39 305 251
-0.017599959 0.71700001 -0.013828539 7.1004073e-39 306 251
-0.016342819 0.71700001 -0.013828539 7.0082117e-39 307 251
-0.01506464 0.71600002 -0.013809253 6.7316332e-39 308 251
-0.013809253 0.71600002 -0.013809253 6.6394376e-39 309 251
-0.012553867 0.71600002 -0.013809253 6.6398033e-39 310 251
-0.011266919 0.71399999 -0.01377068 6.731999e-39 311 251
-0.01001504 0.71399999 -0.01377068 6.732722e-39 312 251
-0.0087508867 0.713 -0.013751393 6.732722e-39 313 251
-0.0075007593 0.713 -0.013751393 6.6398033e-39 314 251
-0.0062506334 0.713 -0.013751393 6.5476077e-39 315 251
-0.0050005065 0.713 -0.013751393 6.4543373e-39 316 251
-0.0037556398 0.71399999 -0.01377068 6.2699446e-39 317 251
-0.0025037599 0.71399999 -0.01377068 5.7189359e-39 318 251
-0.00125188 0.71399999 -0.01377068 5.6267402e-39 319 251
0 0.71399999 -0.01377068 5.1675669e-39 320 251
0.00125188 0.71399999 -0.01377068 5.1675669e-39 321 251
0.0025107733 0.71600002 -0.013809253 4.8917031e-39 322 251
0.00376616 0.71600002 -0.013809253 5.0757343e-39 323 251
0.0050285598 0.71700001 -0.013828539 5.2586836e-39 324 251
0.0062857 0.71700001 -0.013828539 5.3508792e-39 325 251
0.0075428397 0.71700001 -0.013828539 5.1675669e-39 326 251
0.0088367993 0.72000003 -0.0138864 5.1675669e-39 327 251
0.010127253 0.722 -0.013924973 5.3505289e-39 328 251
0.01139316 0.722 -0.013924973 5.3505289e-39 329 251
0.012659066 0.722 -0.013924973 5.534567e-39 330 251
0.01394426 0.72299999 -0.01394426 5.7193184e-39 331 251
0.015211919 0.72299999 -0.01394426 5.6264137e-39 332 251
-0.036863834 0.72500002 -0.015254001 1.6773452e-38 291 252
-0.035592668 0.72500002 -0.015254001 1.3734198e-38 292 252
-0.03422682 0.72299999 -0.015211919 1.262785e-38 293 252
-0.032959159 0.72299999 -0.015211919 1.2078586e-38 294 252
-0.031647664 0.722 -0.015190879 1.1801998e-38 295 252
-0.030381758 0.722 -0.015190879 1.1432489e-38 296 252
-0.029035201 0.72000003 -0.0151488 1.0694924e-38 297 252
-0.027734226 0.71899998 -0.01512776 9.6832947e-39 298 252
-0.02639994 0.71700001 -0.015085679 8.8535326e-39 299 252
-0.0251428 0.71700001 -0.015085679 8.7595433e-39 300 252
-0.023852346 0.71600002 -0.01506464 8.482955e-39 301 252
-0.022596961 0.71600002 -0.01506464 7.8390346e-39 302 252
-0.021341572 0.71600002 -0.01506464 7.6542832e-39 303 252
-0.020114239 0.71700001 -0.015085679 7.0103655e-39 304 252
-0.0188308 0.71600002 -0.01506464 6.9181699e-39 305 252
-0.017575413 0.71600002 -0.01506464 6.4572043e-39 306 252
-0.016320027 0.71600002 -0.01506464 6.3650087e-39 307 252
-0.01506464 0.71600002 -0.01506464 5.9044005e-39 308 252
-0.01377068 0.71399999 -0.015022559 5.7203694e-39 309 252
-0.012518799 0.71399999 -0.015022559 5.7207351e-39 310 252
-0.011266919 0.71399999 -0.015022559 5.8132895e-39 311 252
-0.01001504 0.71399999 -0.015022559 5.9054823e-39 312 252
-0.0087508867 0.713 -0.015001519 5.9976779e-39 313 252
-0.0075007593 0.713 -0.015001519 6.3639423e-39 314 252
-0.0062506334 0.713 -0.015001519 6.1791923e-39 315 252
-0.0050005065 0.713 -0.015001519 6.3621445e-39 316 252
-0.0037556398 0.71399999 -0.015022559 6.2695901e-39 317 252
-0.0025037599 0.71399999 -0.015022559 5.7192918e-39 318 252
-0.00125188 0.71399999 -0.015022559 5.7192918e-39 319 252
0 0.71399999 -0.015022559 5.1679201e-39 320 252
0.00125188 0.71399999 -0.015022559 5.1679201e-39 321 252
0.0025107733 0.71600002 -0.01506464 5.1675641e-39 322 252
0.00376616 0.71600002 -0.01506464 5.1675641e-39 323 252
0.0050215465 0.71600002 -0.01506464 5.2586808e-39 324 252
0.0062857 0.71700001 -0.015085679 5.2586808e-39 325 252
0.0075428397 0.71700001 -0.015085679 5.2586808e-39 326 252
0.0088245263 0.71899998 -0.01512776 5.2586808e-39 327 252
0.010099201 0.72000003 -0.0151488 5.2583304e-39 328 252
0.011361601 0.72000003 -0.0151488 5.3505261e-39 329 252
0.012624 0.72000003 -0.0151488 5.5345698e-39 330 252
0.013924973 0.722 -0.015190879 5.6267668e-39 331 252
0.015190879 0.722 -0.015190879 5.9948291e-39 332 252
0.016456785 0.722 -0.015190879 5.6256864e-39 333 252
-0.036863834 0.72500002 -0.016525166 1.5300121e-38 291 253
-0.035494477 0.72299999 -0.01647958 1.2076829e-38 292 253
-0.03422682 0.72299999 -0.01647958 1.1892438e-38 293 253
-0.032913569 0.722 -0.016456785 1.143357e-38 294 253
-0.031647664 0.722 -0.016456785 1.0972231e-38 295 253
-0.0302976 0.72000003 -0.0164112 1.0511243e-38 296 253
-0.028994869 0.71899998 -0.016388407 1.0049905e-38 297 253
-0.027657079 0.71700001 -0.016342819 9.2215935e-39 298 253
-0.02639994 0.71700001 -0.016342819 8.8528109e-39 299 253
-0.025107734 0.71600002 -0.016320027 8.2067381e-39 300 253
-0.023852346 0.71600002 -0.016320027 8.0223468e-39 301 253
-0.022596961 0.71600002 -0.016320027 7.65393e-39 302 253
-0.021341572 0.71600002 -0.016320027 7.5617344e-39 303 253
-0.020086186 0.71600002 -0.016320027 6.917814e-39 304 253
-0.0188308 0.71600002 -0.016320027 6.5493902e-39 305 253
-0.017575413 0.71600002 -0.016320027 6.2728131e-39 306 253
-0.016320027 0.71600002 -0.016320027 5.8118349e-39 307 253
-0.015022559 0.71399999 -0.016274439 5.7192862e-39 308 253
-0.013751393 0.713 -0.016251646 5.6270905e-39 309 253
-0.012501267 0.713 -0.016251646 5.7192918e-39 310 253
-0.011266919 0.71399999 -0.016274439 5.7192918e-39 311 253
-0.010001013 0.713 -0.016251646 5.9036816e-39 312 253
-0.0087508867 0.713 -0.016251646 5.996236e-39 313 253
-0.0075007593 0.713 -0.016251646 6.5465329e-39 314 253
-0.0062506334 0.713 -0.016251646 6.3621417e-39 315 253
-0.0050005065 0.713 -0.016251646 6.0862778e-39 316 253
-0.0037503797 0.713 -0.016251646 5.9940808e-39 317 253
-0.0025002533 0.713 -0.016251646 5.6281766e-39 318 253
-0.0012501266 0.713 -0.016251646 5.3512295e-39 319 253
0 0.71399999 -0.016274439 5.1679173e-39 320 253
0.00125188 0.71399999 -0.016274439 5.0757216e-39 321 253
0.0025037599 0.71399999 -0.016274439 5.3505135e-39 322 253
0.0037556398 0.71399999 -0.016274439 5.3505135e-39 323 253
0.0050215465 0.71600002 -0.016320027 5.4416301e-39 324 253
0.0062769335 0.71600002 -0.016320027 5.4416301e-39 325 253
0.00753232 0.71600002 -0.016320027 5.3505107e-39 326 253
0.0088245263 0.71899998 -0.016388407 5.3505107e-39 327 253
0.010099201 0.72000003 -0.0164112 5.2586808e-39 328 253
0.011361601 0.72000003 -0.0164112 5.2586808e-39 329 253
0.012624 0.72000003 -0.0164112 5.6256682e-39 330 253
0.013924973 0.722 -0.016456785 5.8104182e-39 331 253
0.015190879 0.722 -0.016456785 5.9022593e-39 332 253
0.016456785 0.722 -0.016456785 6.0866492e-39 333 253
0.017796334 0.72500002 -0.016525166 2.8637678e-39 334 253
-0.036762137 0.72299999 -0.017747238 1.3641671e-38 291 254
-0.035494477 0.72299999 -0.017747238 1.1892435e-38 292 254
-0.03422682 0.72299999 -0.017747238 1.1800238e-38 293 254
-0.032913569 0.722 -0.017722692 1.0973316e-38 294 254
-0.031647664 0.722 -0.017722692 1.0420144e-38 295 254
-0.0302976 0.72000003 -0.017673599 9.6829275e-39 296 254
-0.028994869 0.71899998 -0.017649053 9.2215893e-39 297 254
-0.027657079 0.71700001 -0.017599959 8.4843984e-39 298 254
-0.026363119 0.71600002 -0.017575413 8.2078101e-39 299 254
-0.025107734 0.71600002 -0.017575413 8.1141893e-39 300 254
-0.02378572 0.71399999 -0.017526319 7.7457655e-39 301 254
-0.022533838 0.71399999 -0.017526319 7.1025639e-39 302 254
-0.021281958 0.71399999 -0.017526319 6.917814e-39 303 254
-0.020086186 0.71600002 -0.017575413 6.2738921e-39 304 254
-0.0188308 0.71600002 -0.017575413 5.9051096e-39 305 254
-0.017526319 0.71399999 -0.017526319 5.2611849e-39 306 254
-0.016274439 0.71399999 -0.017526319 5.1689893e-39 307 254
-0.015022559 0.71399999 -0.017526319 5.2590339e-39 308 254
-0.013751393 0.713 -0.017501773 5.0750028e-39 309 254
-0.012501267 0.713 -0.017501773 5.2586836e-39 310 254
-0.011251139 0.713 -0.017501773 5.3508792e-39 311 254
-0.010001013 0.713 -0.017501773 5.6263871e-39 312 254
-0.0087508867 0.713 -0.017501773 5.7189415e-39 313 254
-0.0075007593 0.713 -0.017501773 5.7189387e-39 314 254
-0.0062330998 0.71100003 -0.01745268 5.7189387e-39 315 254
-0.0049864799 0.71100003 -0.01745268 5.8111329e-39 316 254
-0.0037503797 0.713 -0.017501773 5.6267402e-39 317 254
-0.0025002533 0.713 -0.017501773 5.4434308e-39 318 254
-0.0012501266 0.713 -0.017501773 5.2586808e-39 319 254
0 0.713 -0.017501773 5.3501575e-39 320 254
0.0012501266 0.713 -0.017501773 5.3501575e-39 321 254
0.0025037599 0.71399999 -0.017526319 5.4412742e-39 322 254
0.0037556398 0.71399999 -0.017526319 5.4412742e-39 323 254
0.0050215465 0.71600002 -0.017575413 5.0746524e-39 324 254
0.0062769335 0.71600002 -0.017575413 4.9824568e-39 325 254
0.00753232 0.71600002 -0.017575413 5.0753685e-39 326 254
0.0087999795 0.71700001 -0.017599959 5.0753685e-39 327 254
0.010099201 0.72000003 -0.017673599 5.3501603e-39 328 254
0.011361601 0.72000003 -0.017673599 5.3501603e-39 329 254
0.012624 0.72000003 -0.017673599 5.6263871e-39 330 254
0.0138864 0.72000003 -0.017673599 5.7189415e-39 331 254
0.0151488 0.72000003 -0.017673599 6.0862933e-39 332 254
0.016525166 0.72500002 -0.017796334 6.0862933e-39 333 254
0.017796334 0.72500002 -0.017796334 4.2416674e-39 334 254
0.0191464 0.72799999 -0.017869972 6.9153407e-39 335 254
-0.036762137 0.72299999 -0.019014901 1.1983579e-38 291 255
-0.035494477 0.72299999 -0.019014901 1.1432884e-38 292 255
-0.03422682 0.72299999 -0.019014901 1.1064103e-38 293 255
-0.032913569 0.722 -0.0189886 9.7758589e-39 294 255
-0.031647664 0.722 -0.0189886 9.3148807e-39 295 255
-0.0302976 0.72000003 -0.018935999 8.9453723e-39 296 255
-0.028914221 0.71700001 -0.018857099 8.4847543e-39 297 255
-0.027618507 0.71600002 -0.0188308 8.3000085e-39 298 255
-0.026363119 0.71600002 -0.0188308 8.023423e-39 299 255
-0.025107734 0.71600002 -0.0188308 7.4706206e-39 300 255
-0.02378572 0.71399999 -0.018778199 7.193675e-39 301 255
-0.022533838 0.71399999 -0.018778199 6.7345045e-39 302 255
-0.021281958 0.71399999 -0.018778199 6.4575575e-39 303 255
-0.020086186 0.71600002 -0.0188308 5.9969493e-39 304 255
-0.018778199 0.71399999 -0.018778199 5.6285255e-39 305 255
-0.017526319 0.71399999 -0.018778199 5.1679145e-39 306 255
-0.016274439 0.71399999 -0.018778199 4.9835232e-39 307 255
-0.015022559 0.71399999 -0.018778199 5.1661194e-39 308 255
-0.013751393 0.713 -0.018751899 5.1661194e-39 309 255
-0.012501267 0.713 -0.018751899 5.1657691e-39 310 255
-0.011251139 0.713 -0.018751899 5.1657691e-39 311 255
-0.010001013 0.713 -0.018751899 5.2576088e-39 312 255
-0.0087508867 0.713 -0.018751899 5.2576088e-39 313 255
-0.0075007593 0.713 -0.018751899 5.5338285e-39 314 255
-0.0062330998 0.71100003 -0.0186993 5.6260242e-39 315 255
-0.0049864799 0.71100003 -0.0186993 5.4427119e-39 316 255
-0.0037503797 0.713 -0.018751899 5.3501575e-39 317 255
-0.0025002533 0.713 -0.018751899 5.2579619e-39 318 255
-0.0012501266 0.713 -0.018751899 5.2579619e-39 319 255
0 0.713 -0.018751899 5.2579619e-39 320 255
0.0012501266 0.713 -0.018751899 5.1657663e-39 321 255
0.0025002533 0.713 -0.018751899 5.2583178e-39 322 255
0.0037503797 0.713 -0.018751899 5.2583178e-39 323 255
0.0050075199 0.71399999 -0.018778199 5.0750028e-39 324 255
0.0062593995 0.71399999 -0.018778199 5.0750028e-39 325 255
0.00753232 0.71600002 -0.0188308 4.983526e-39 326 255
0.0087999795 0.71700001 -0.018857099 4.983526e-39 327 255
0.010085173 0.71899998 -0.018909698 5.2583178e-39 328 255
0.01134582 0.71899998 -0.018909698 5.3505135e-39 329 255
0.012624 0.72000003 -0.018935999 5.6260214e-39 330 255
0.0138864 0.72000003 -0.018935999 5.718217e-39 331 255
0.0151488 0.72000003 -0.018935999 5.9937277e-39 332 255
0.01647958 0.72299999 -0.019014901 6.2706747e-39 333 255
0.017747238 0.72299999 -0.019014901 5.5306041e-39 334 255
0.0191464 0.72799999 -0.0191464 7.4667124e-39 335 255
0.020422826 0.72799999 -0.0191464 1.3550925e-38 336 255
-0.036762137 0.72299999 -0.020282559 1.1061616e-38 291 256
-0.035494477 0.72299999 -0.020282559 1.0604553e-38 292 256
-0.034179479 0.722 -0.020254506 1.0511999e-38 293 256
-0.032913569 0.722 -0.020254506 9.3152464e-39 294 256
-0.03156 0.72000003 -0.020198401 8.9468241e-39 295 256
-0.030255521 0.71899998 -0.020170346 8.4862018e-39 296 256
-0.028914221 0.71700001 -0.020114239 8.3014519e-39 297 256
-0.027618507 0.71600002 -0.020086186 7.8404765e-39 298 256
-0.026363119 0.71600002 -0.020086186 7.6560852e-39 299 256
-0.025037598 0.71399999 -0.020030079 7.1947596e-39 300 256
-0.02378572 0.71399999 -0.020030079 6.917814e-39 301 256
-0.022533838 0.71399999 -0.020030079 6.550123e-39 302 256
-0.021281958 0.71399999 -0.020030079 6.1816993e-39 303 256
-0.020086186 0.71600002 -0.020086186 5.7207351e-39 304 256
-0.018778199 0.71399999 -0.020030079 5.4441468e-39 305 256
-0.017526319 0.71399999 -0.020030079 5.2586808e-39 306 256
-0.016274439 0.71399999 -0.020030079 4.890257e-39 307 256
-0.015001519 0.713 -0.020002026 4.890257e-39 308 256
-0.013751393 0.713 -0.020002026 4.7980614e-39 309 256
-0.012501267 0.713 -0.020002026 4.7977082e-39 310 256
-0.011251139 0.713 -0.020002026 4.7977082e-39 311 256
-0.0099729598 0.71100003 -0.01994592 4.7980712e-39 312 256
-0.0087263398 0.71100003 -0.01994592 4.7980712e-39 313 256
-0.0074797203 0.71100003 -0.01994592 4.8899011e-39 314 256
-0.0062330998 0.71100003 -0.01994592 4.9824568e-39 315 256
-0.0049864799 0.71100003 -0.01994592 5.1657691e-39 316 256
-0.0037398601 0.71100003 -0.01994592 5.1657691e-39 317 256
-0.0025002533 0.713 -0.020002026 5.073572e-39 318 256
-0.0012501266 0.713 -0.020002026 5.073572e-39 319 256
0 0.713 -0.020002026 5.0735692e-39 320 256
0.0012501266 0.713 -0.020002026 5.0735692e-39 321 256
0.0025002533 0.713 -0.020002026 5.0735664e-39 322 256
0.0037503797 0.713 -0.020002026 5.2583178e-39 323 256
0.0050075199 0.71399999 -0.020030079 5.0750028e-39 324 256
0.0062593995 0.71399999 -0.020030079 5.2590339e-39 325 256
0.00753232 0.71600002 -0.020086186 5.0750028e-39 326 256
0.0087877065 0.71600002 -0.020086186 5.0750028e-39 327 256
0.01005712 0.71700001 -0.020114239 5.258315e-39 328 256
0.01134582 0.71899998 -0.020170346 5.3505107e-39 329 256
0.012606465 0.71899998 -0.020170346 5.4427063e-39 330 256
0.013867113 0.71899998 -0.020170346 5.6270962e-39 331 256
0.01512776 0.71899998 -0.020170346 5.8104154e-39 332 256
0.016456785 0.722 -0.020254506 6.2713936e-39 333 256
0.017747238 0.72299999 -0.020282559 6.1759736e-39 334 256
0.019120099 0.727 -0.020394772 7.3745167e-39 335 256
0.020394772 0.727 -0.020394772 1.1892845e-38 336 256
0.021669446 0.727 -0.020394772 1.5304084e-38 337 256
-0.036762137 0.72299999 -0.021550218 1.0233285e-38 291 257
-0.035445385 0.722 -0.021520413 9.6851108e-39 292 257
-0.034179479 0.722 -0.021520413 9.5925564e-39 293 257
-0.0328224 0.72000003 -0.021460801 8.8542725e-39 294 257
-0.03156 0.72000003 -0.021460801 8.6698798e-39 295 257
-0.030255521 0.71899998 -0.021430992 8.1181424e-39 296 257
-0.028914221 0.71700001 -0.021371379 7.8411954e-39 297 257
-0.027618507 0.71600002 -0.021341572 7.4731387e-39 298 257
-0.026289478 0.71399999 -0.021281958 7.1961931e-39 299 257
-0.025037598 0.71399999 -0.021281958 7.1029297e-39 300 257
-0.02378572 0.71399999 -0.021281958 6.7341486e-39 301 257
-0.022533838 0.71399999 -0.021281958 6.1831454e-39 302 257
-0.021281958 0.71399999 -0.021281958 5.9987527e-39 303 257
-0.020030079 0.71399999 -0.021281958 5.5381445e-39 304 257
-0.018778199 0.71399999 -0.021281958 5.1693634e-39 305 257
-0.017526319 0.71399999 -0.021281958 5.3508764e-39 306 257
-0.016251646 0.713 -0.021252153 4.982454e-39 307 257
-0.015001519 0.713 -0.021252153 4.7977054e-39 308 257
-0.013751393 0.713 -0.021252153 4.7977054e-39 309 257
-0.0124662 0.71100003 -0.021192541 4.5218416e-39 310 257
-0.01121958 0.71100003 -0.021192541 4.5218416e-39 311 257
-0.0099729598 0.71100003 -0.021192541 4.5218416e-39 312 257
-0.0087263398 0.71100003 -0.021192541 4.5218416e-39 313 257
-0.0074797203 0.71100003 -0.021192541 4.7977054e-39 314 257
-0.0062330998 0.71100003 -0.021192541 4.7977054e-39 315 257
-0.0049864799 0.71100003 -0.021192541 4.7980614e-39 316 257
-0.0037398601 0.71100003 -0.021192541 4.890257e-39 317 257
-0.0024932399 0.71100003 -0.021192541 4.7977054e-39 318 257
-0.00124662 0.71100003 -0.021192541 4.7977054e-39 319 257
0 0.713 -0.021252153 4.9810177e-39 320 257
0.0012501266 0.713 -0.021252153 4.9810177e-39 321 257
0.0025002533 0.713 -0.021252153 4.890257e-39 322 257
0.0037503797 0.713 -0.021252153 5.0746496e-39 323 257
0.0050005065 0.713 -0.021252153 5.1657635e-39 324 257
0.0062593995 0.71399999 -0.021281958 5.2583178e-39 325 257
0.00753232 0.71600002 -0.021341572 5.258315e-39 326 257
0.0087877065 0.71600002 -0.021341572 5.1661194e-39 327 257
0.01005712 0.71700001 -0.021371379 5.258315e-39 328 257
0.01134582 0.71899998 -0.021430992 5.3505107e-39 329 257
0.012606465 0.71899998 -0.021430992 5.6263745e-39 330 257
0.013867113 0.71899998 -0.021430992 5.7185701e-39 331 257
0.01512776 0.71899998 -0.021430992 6.0862806e-39 332 257
0.016456785 0.722 -0.021520413 6.2706719e-39 333 257
0.017747238 0.72299999 -0.021550218 6.2703244e-39 334 257
0.019120099 0.727 -0.021669446 6.7309438e-39 335 257
0.020394772 0.727 -0.021669446 1.0141481e-38 336 257
0.021550218 0.72299999 -0.021550218 1.4566872e-38 337 257
-0.038029801 0.72299999 -0.02281788 1.0328352e-38 290 258
-0.036762137 0.72299999 -0.02281788 9.0376128e-39 291 258
-0.035445385 0.722 -0.022786319 9.5914774e-39 292 258
-0.034179479 0.722 -0.022786319 9.1301391e-39 293 258
-0.0328224 0.72000003 -0.022723202 8.0259566e-39 294 258
-0.03156 0.72000003 -0.022723202 8.0259566e-39 295 258
-0.030255521 0.71899998 -0.022691639 7.9330421e-39 296 258
-0.028914221 0.71700001 -0.02262852 7.6564538e-39 297 258
-0.027618507 0.71600002 -0.022596961 7.2880412e-39 298 258
-0.026289478 0.71399999 -0.022533838 7.0118145e-39 299 258
-0.025037598 0.71399999 -0.022533838 6.6437662e-39 300 258
-0.02378572 0.71399999 -0.022533838 6.459375e-39 301 258
-0.022533838 0.71399999 -0.022533838 5.9998457e-39 302 258
-0.021281958 0.71399999 -0.022533838 5.8154545e-39 303 258
-0.020030079 0.71399999 -0.022533838 5.6307087e-39 304 258
-0.018778199 0.71399999 -0.022533838 5.2619276e-39 305 258
-0.017501773 0.713 -0.022502279 5.0768133e-39 306 258
-0.016251646 0.713 -0.022502279 4.5239996e-39 307 258
-0.015001519 0.713 -0.022502279 4.7984271e-39 308 258
-0.013751393 0.713 -0.022502279 4.5218416e-39 309 258
-0.0124662 0.71100003 -0.022439159 4.7055126e-39 310 258
-0.01121958 0.71100003 -0.022439159 4.7055126e-39 311 258
-0.0099729598 0.71100003 -0.022439159 4.6133142e-39 312 258
-0.0087263398 0.71100003 -0.022439159 4.6133142e-39 313 258
-0.0074797203 0.71100003 -0.022439159 4.7047909e-39 314 258
-0.0062330998 0.71100003 -0.022439159 4.7047909e-39 315 258
-0.0049864799 0.71100003 -0.022439159 4.705507e-39 316 258
-0.0037398601 0.71100003 -0.022439159 4.7980614e-39 317 258
-0.0024932399 0.71100003 -0.022439159 4.705507e-39 318 258
-0.00124662 0.71100003 -0.022439159 4.705507e-39 319 258
0 0.71100003 -0.022439159 4.7973425e-39 320 258
0.00124662 0.71100003 -0.022439159 4.7973425e-39 321 258
0.0024932399 0.71100003 -0.022439159 4.9813736e-39 322 258
0.0037398601 0.71100003 -0.022439159 5.0735692e-39 323 258
0.0050005065 0.713 -0.022502279 5.257599e-39 324 258
0.0062593995 0.71399999 -0.022533838 5.257599e-39 325 258
0.0075112795 0.71399999 -0.022533838 5.1657635e-39 326 258
0.0087877065 0.71600002 -0.022596961 5.1657635e-39 327 258
0.01005712 0.71700001 -0.02262852 5.4419832e-39 328 258
0.01131426 0.71700001 -0.02262852 5.6263745e-39 329 258
0.012606465 0.71899998 -0.022691639 5.7189232e-39 330 258
0.013867113 0.71899998 -0.022691639 5.8111189e-39 331 258
0.01512776 0.71899998 -0.022691639 6.1788294e-39 332 258
0.016456785 0.722 -0.022786319 6.5472518e-39 333 258
0.017747238 0.72299999 -0.02281788 6.6390999e-39 334 258
0.019014901 0.72299999 -0.02281788 6.2703188e-39 335 258
0.020282559 0.72299999 -0.02281788 8.0206148e-39 336 258
0.021550218 0.72299999 -0.02281788 1.364419e-38 337 258
0.02281788 0.72299999 -0.02281788 1.7511018e-38 338 258
-0.039297458 0.72299999 -0.024085538 1.2810486e-38 289 259
-0.038029801 0.72299999 -0.024085538 8.7631923e-39 290 259
-0.036762137 0.72299999 -0.024085538 8.3944112e-39 291 259
-0.035445385 0.722 -0.024052227 8.3954678e-39 292 259
-0.034179479 0.722 -0.024052227 8.1185207e-39 293 259
-0.0328224 0.72000003 -0.0239856 7.3820417e-39 294 259
-0.031516165 0.71899998 -0.023952285 7.2894859e-39 295 259
-0.030171359 0.71700001 -0.02388566 7.4724325e-39 296 259
-0.028873893 0.71600002 -0.023852346 7.2880412e-39 297 259
-0.027618507 0.71600002 -0.023852346 7.012183e-39 298 259
-0.026289478 0.71399999 -0.02378572 6.9196286e-39 299 259
-0.025037598 0.71399999 -0.02378572 6.4601022e-39 300 259
-0.02378572 0.71399999 -0.02378572 6.3679052e-39 301 259
-0.022502279 0.713 -0.023752406 5.7247064e-39 302 259
-0.021252153 0.713 -0.023752406 5.5399564e-39 303 259
-0.020030079 0.71399999 -0.02378572 5.4470433e-39 304 259
-0.018751899 0.713 -0.023752406 5.2622933e-39 305 259
-0.017501773 0.713 -0.023752406 5.0768133e-39 306 259
-0.016251646 0.713 -0.023752406 4.8002264e-39 307 259
-0.014959441 0.71100003 -0.023685781 4.5229164e-39 308 259
-0.01371282 0.71100003 -0.023685781 4.5229164e-39 309 259
-0.0124662 0.71100003 -0.023685781 4.2463337e-39 310 259
-0.01121958 0.71100003 -0.023685781 4.2463337e-39 311 259
-0.0099729598 0.71100003 -0.023685781 4.612961e-39 312 259
-0.0087263398 0.71100003 -0.023685781 4.4289299e-39 313 259
-0.0074797203 0.71100003 -0.023685781 4.6122422e-39 314 259
-0.0062330998 0.71100003 -0.023685781 4.7044378e-39 315 259
-0.0049864799 0.71100003 -0.023685781 4.6133114e-39 316 259
-0.0037345996 0.70999998 -0.023652466 4.705507e-39 317 259
-0.0024897333 0.70999998 -0.023652466 4.5225479e-39 318 259
-0.00124662 0.71100003 -0.023685781 4.5225479e-39 319 259
0 0.71100003 -0.023685781 4.6136673e-39 320 259
0.00124662 0.71100003 -0.023685781 4.7058629e-39 321 259
0.0024932399 0.71100003 -0.023685781 4.9813736e-39 322 259
0.0037398601 0.71100003 -0.023685781 5.0735692e-39 323 259
0.0050005065 0.713 -0.023752406 5.0735664e-39 324 259
0.0062593995 0.71399999 -0.02378572 5.1657635e-39 325 259
0.0075112795 0.71399999 -0.02378572 5.2575962e-39 326 259
0.0087877065 0.71600002 -0.023852346 5.5338229e-39 327 259
0.01005712 0.71700001 -0.02388566 5.3508638e-39 328 259
0.01131426 0.71700001 -0.02388566 5.4430594e-39 329 259
0.012606465 0.71899998 -0.023952285 5.8111189e-39 330 259
0.013867113 0.71899998 -0.023952285 5.8111189e-39 331 259
0.01512776 0.71899998 -0.023952285 6.0873526e-39 332 259
0.016456785 0.722 -0.024052227 6.2717439e-39 333 259
0.017747238 0.72299999 -0.024085538 6.5490721e-39 334 259
0.019014901 0.72299999 -0.024085538 5.9958983e-39 335 259
0.020282559 0.72299999 -0.024085538 7.2801771e-39 336 259
0.021550218 0.72299999 -0.024085538 1.2904109e-38 337 259
0.02281788 0.72299999 -0.024085538 1.7050393e-38 338 259
-0.039297458 0.72299999 -0.025353199 1.1612296e-38 289 260
-0.038029801 0.72299999 -0.025353199 7.750111e-39 290 260
-0.03671129 0.722 -0.025318133 6.8285148e-39 291 260
-0.035445385 0.722 -0.025318133 8.0241573e-39 292 260
-0.034084801 0.72000003 -0.025248 7.7479305e-39 293 260
-0.032776814 0.71899998 -0.025212931 7.6561035e-39 294 260
-0.031516165 0.71899998 -0.025212931 7.4717136e-39 295 260
-0.030171359 0.71700001 -0.0251428 7.2880412e-39 296 260
-0.028873893 0.71600002 -0.025107734 7.1958456e-39 297 260
-0.02754136 0.71399999 -0.025037598 6.7363164e-39 298 260
-0.026289478 0.71399999 -0.025037598 6.7363164e-39 299 260
-0.025037598 0.71399999 -0.025037598 6.0934861e-39 300 260
-0.023752406 0.713 -0.025002534 5.8168992e-39 301 260
-0.022502279 0.713 -0.025002534 5.8154727e-39 302 260
-0.021252153 0.713 -0.025002534 5.5388872e-39 303 260
-0.020002026 0.713 -0.025002534 5.3541386e-39 304 260
-0.018751899 0.713 -0.025002534 4.9857162e-39 305 260
-0.017501773 0.713 -0.025002534 4.984989e-39 306 260
-0.01620606 0.71100003 -0.024932399 4.4318166e-39 307 260
-0.014959441 0.71100003 -0.024932399 4.3388951e-39 308 260
-0.01371282 0.71100003 -0.024932399 4.2466995e-39 309 260
-0.0124662 0.71100003 -0.024932399 4.2463337e-39 310 260
-0.01121958 0.71100003 -0.024932399 4.2463337e-39 311 260
-0.0099729598 0.71100003 -0.024932399 4.6133142e-39 312 260
-0.0087263398 0.71100003 -0.024932399 4.429283e-39 313 260
-0.0074797203 0.71100003 -0.024932399 4.6125953e-39 314 260
-0.0062243328 0.70999998 -0.024897331 4.7047909e-39 315 260
-0.0049794666 0.70999998 -0.024897331 4.6136673e-39 316 260
-0.0037345996 0.70999998 -0.024897331 4.7058629e-39 317 260
-0.0024897333 0.70999998 -0.024897331 4.6136645e-39 318 260
-0.00124662 0.71100003 -0.024932399 4.6136645e-39 319 260
0 0.71100003 -0.024932399 4.6136645e-39 320 260
0.00124662 0.71100003 -0.024932399 4.7980558e-39 321 260
0.0024932399 0.71100003 -0.024932399 4.9813708e-39 322 260
0.0037398601 0.71100003 -0.024932399 5.0735664e-39 323 260
0.0050005065 0.713 -0.025002534 5.2575962e-39 324 260
0.0062593995 0.71399999 -0.025037598 5.2575962e-39 325 260
0.0075112795 0.71399999 -0.025037598 5.4419776e-39 326 260
0.0087877065 0.71600002 -0.025107734 5.4419776e-39 327 260
0.01005712 0.71700001 -0.0251428 5.5345264e-39 328 260
0.01131426 0.71700001 -0.0251428 5.626722e-39 329 260
0.012606465 0.71899998 -0.025212931 5.9947843e-39 330 260
0.0138864 0.72000003 -0.025248 6.0869799e-39 331 260
0.0151488 0.72000003 -0.025248 6.2702978e-39 332 260
0.016456785 0.722 -0.025318133 6.546886e-39 333 260
0.017747238 0.72299999 -0.025353199 7.0067908e-39 334 260
0.019014901 0.72299999 -0.025353199 6.8223995e-39 335 260
0.020282559 0.72299999 -0.025353199 7.0028419e-39 336 260
0.021550218 0.72299999 -0.025353199 1.253458e-38 337 260
0.02281788 0.72299999 -0.025353199 1.6867074e-38 338 260
-0.039297458 0.72299999 -0.026620859 1.0599941e-38 289 261
-0.0379772 0.722 -0.026584039 7.3813355e-39 290 261
-0.03671129 0.722 -0.026584039 6.8281617e-39 291 261
-0.035445385 0.722 -0.026584039 6.8288651e-39 292 261
-0.034084801 0.72000003 -0.026510401 6.7366695e-39 293 261
-0.032685637 0.71700001 -0.02639994 6.6441193e-39 294 261
-0.031384666 0.71600002 -0.026363119 6.7363164e-39 295 261
-0.03012928 0.71600002 -0.026363119 6.4615273e-39 296 261
-0.028873893 0.71600002 -0.026363119 6.3693303e-39 297 261
-0.02754136 0.71399999 -0.026289478 6.185309e-39 298 261
-0.026289478 0.71399999 -0.026289478 6.277506e-39 299 261
-0.025037598 0.71399999 -0.026289478 6.1856817e-39 300 261
-0.023752406 0.713 -0.026252659 5.9090949e-39 301 261
-0.022502279 0.713 -0.026252659 6.0002171e-39 302 261
-0.021252153 0.713 -0.026252659 5.631436e-39 303 261
-0.020002026 0.713 -0.026252659 5.2622961e-39 304 261
-0.018751899 0.713 -0.026252659 4.9860694e-39 305 261
-0.01745268 0.71100003 -0.026179021 4.7084035e-39 306 261
-0.01620606 0.71100003 -0.026179021 4.4318166e-39 307 261
-0.014959441 0.71100003 -0.026179021 4.339251e-39 308 261
-0.01371282 0.71100003 -0.026179021 4.2470554e-39 309 261
-0.0124662 0.71100003 -0.026179021 4.1541353e-39 310 261
-0.011203799 0.70999998 -0.026142199 4.1541353e-39 311 261
-0.0099589331 0.70999998 -0.026142199 4.4289271e-39 312 261
-0.0087140659 0.70999998 -0.026142199 4.3367315e-39 313 261
-0.0074691991 0.70999998 -0.026142199 4.2452547e-39 314 261
-0.0062243328 0.70999998 -0.026142199 4.3374503e-39 315 261
-0.0049794666 0.70999998 -0.026142199 4.3374475e-39 316 261
-0.0037345996 0.70999998 -0.026142199 4.4300019e-39 317 261
-0.0024897333 0.70999998 -0.026142199 4.246684e-39 318 261
-0.00124662 0.71100003 -0.026179021 4.246684e-39 319 261
0 0.71100003 -0.026179021 4.7058601e-39 320 261
0.00124662 0.71100003 -0.026179021 4.7980558e-39 321 261
0.0024932399 0.71100003 -0.026179021 5.0735664e-39 322 261
0.0037398601 0.71100003 -0.026179021 5.1657635e-39 323 261
0.0050005065 0.713 -0.026252659 5.2586682e-39 324 261
0.0062593995 0.71399999 -0.026289478 5.2586682e-39 325 261
0.00753232 0.71600002 -0.026363119 5.4423307e-39 326 261
0.0087877065 0.71600002 -0.026363119 5.5345264e-39 327 261
0.01005712 0.71700001 -0.02639994 5.4437657e-39 328 261
0.01134582 0.71899998 -0.02647358 5.4437657e-39 329 261
0.012606465 0.71899998 -0.02647358 5.7189204e-39 330 261
0.0138864 0.72000003 -0.026510401 5.8111161e-39 331 261
0.0151488 0.72000003 -0.026510401 6.1788266e-39 332 261
0.016456785 0.722 -0.026584039 6.2710222e-39 333 261
0.017747238 0.72299999 -0.026620859 6.7320018e-39 334 261
0.019014901 0.72299999 -0.026620859 6.4550562e-39 335 261
0.020338668 0.72500002 -0.026694499 7.5531276e-39 336 261
0.021609833 0.72500002 -0.026694499 1.2900476e-38 337 261
0.022880999 0.72500002 -0.026694499 1.6867057e-38 338 261
-0.040565118 0.72299999 -0.02788852 1.4749101e-38 288 262
-0.039297458 0.72299999 -0.02788852 9.770178e-39 289 262
-0.0379772 0.722 -0.027849946 6.8285148e-39 290 262
-0.03671129 0.722 -0.027849946 6.6441221e-39 291 262
-0.035347197 0.72000003 -0.027772799 6.9196146e-39 292 262
-0.03403746 0.71899998 -0.027734226 6.827419e-39 293 262
-0.032685637 0.71700001 -0.027657079 6.5519209e-39 294 262
-0.031384666 0.71600002 -0.027618507 6.5519209e-39 295 262
-0.03012928 0.71600002 -0.027618507 6.3686115e-39 296 262
-0.028793238 0.71399999 -0.02754136 6.2764158e-39 297 262
-0.02754136 0.71399999 -0.02754136 6.0931162e-39 298 262
-0.026289478 0.71399999 -0.02754136 6.0931162e-39 299 262
-0.025002534 0.713 -0.027502786 5.9101837e-39 300 262
-0.023752406 0.713 -0.027502786 5.7261525e-39 301 262
-0.022502279 0.713 -0.027502786 5.5421228e-39 302 262
-0.021252153 0.713 -0.027502786 5.1737004e-39 303 262
-0.020002026 0.713 -0.027502786 5.1711767e-39 304 262
-0.018751899 0.713 -0.027502786 4.8023942e-39 305 262
-0.01745268 0.71100003 -0.027425639 4.7998732e-39 306 262
-0.01620606 0.71100003 -0.027425639 4.5236465e-39 307 262
-0.014959441 0.71100003 -0.027425639 4.3392482e-39 308 262
-0.01371282 0.71100003 -0.027425639 4.2470526e-39 309 262
-0.012448666 0.70999998 -0.027387066 4.1541381e-39 310 262
-0.011203799 0.70999998 -0.027387066 4.1541381e-39 311 262
-0.0099589331 0.70999998 -0.027387066 4.3367315e-39 312 262
-0.0087140659 0.70999998 -0.027387066 4.3367315e-39 313 262
-0.0074691991 0.70999998 -0.027387066 4.2452519e-39 314 262
-0.0062243328 0.70999998 -0.027387066 4.2452519e-39 315 262
-0.0049794666 0.70999998 -0.027387066 4.3378035e-39 316 262
-0.0037345996 0.70999998 -0.027387066 4.3378035e-39 317 262
-0.0024897333 0.70999998 -0.027387066 4.24704e-39 318 262
-0.0012448666 0.70999998 -0.027387066 4.4310711e-39 319 262
0 0.71100003 -0.027425639 4.7973397e-39 320 262
0.00124662 0.71100003 -0.027425639 4.9813708e-39 321 262
0.0024932399 0.71100003 -0.027425639 5.1657635e-39 322 262
0.0037398601 0.71100003 -0.027425639 5.2583178e-39 323 262
0.0050005065 0.713 -0.027502786 5.2593842e-39 324 262
0.0062593995 0.71399999 -0.02754136 5.2593842e-39 325 262
0.00753232 0.71600002 -0.027618507 5.4437657e-39 326 262
0.0087877065 0.71600002 -0.027618507 5.4437657e-39 327 262
0.01005712 0.71700001 -0.027657079 5.6277968e-39 328 262
0.01134582 0.71899998 -0.027734226 5.4437657e-39 329 262
0.012606465 0.71899998 -0.027734226 5.7192764e-39 330 262
0.0138864 0.72000003 -0.027772799 5.811472e-39 331 262
0.0151488 0.72000003 -0.027772799 6.362492e-39 332 262
0.016456785 0.722 -0.027849946 6.6394376e-39 333 262
0.017722692 0.722 -0.027849946 7.2833693e-39 334 262
0.019014901 0.72299999 -0.02788852 7.2833693e-39 335 262
0.020338668 0.72500002 -0.027965667 8.2914129e-39 336 262
0.021609833 0.72500002 -0.027965667 1.3454368e-38 337 262
0.022880999 0.72500002 -0.027965667 1.7050013e-38 338 262
-0.040677335 0.72500002 -0.029236834 1.4471789e-38 288 263
-0.039406165 0.72500002 -0.029236834 9.0318871e-39 289 263
-0.0379772 0.722 -0.029115854 6.1838643e-39 290 263
-0.036609601 0.72000003 -0.029035201 6.2760599e-39 291 263
-0.035298105 0.71899998 -0.028994869 6.5515552e-39 292 263
-0.033942781 0.71700001 -0.028914221 6.5515552e-39 293 263
-0.032640055 0.71600002 -0.028873893 6.1849363e-39 294 263
-0.031384666 0.71600002 -0.028873893 6.1849363e-39 295 263
-0.030045118 0.71399999 -0.028793238 6.1838671e-39 296 263
-0.028793238 0.71399999 -0.028793238 6.0913127e-39 297 263
-0.02754136 0.71399999 -0.028793238 5.7247008e-39 298 263
-0.026289478 0.71399999 -0.028793238 5.9094508e-39 299 263
-0.025002534 0.713 -0.028752912 5.5424787e-39 300 263
-0.023752406 0.713 -0.028752912 5.4499244e-39 301 263
-0.022502279 0.713 -0.028752912 5.6325234e-39 302 263
-0.021252153 0.713 -0.028752912 5.2637423e-39 303 263
-0.020002026 0.713 -0.028752912 4.9860694e-39 304 263
-0.0186993 0.71100003 -0.028672259 4.7091223e-39 305 263
-0.01745268 0.71100003 -0.028672259 4.7076748e-39 306 263
-0.01620606 0.71100003 -0.028672259 4.5236437e-39 307 263
-0.014959441 0.71100003 -0.028672259 4.3392482e-39 308 263
-0.01371282 0.71100003 -0.028672259 4.2470526e-39 309 263
-0.012448666 0.70999998 -0.028631933 4.429646e-39 310 263
-0.011203799 0.70999998 -0.028631933 4.3374503e-39 311 263
-0.0099589331 0.70999998 -0.028631933 4.2452547e-39 312 263
-0.008689519 0.708 -0.02855128 4.1530577e-39 313 263
-0.0074481601 0.708 -0.02855128 3.9697426e-39 314 263
-0.0062243328 0.70999998 -0.028631933 3.9697426e-39 315 263
-0.0049794666 0.70999998 -0.028631933 4.0622956e-39 316 263
-0.0037345996 0.70999998 -0.028631933 4.1544912e-39 317 263
-0.0024897333 0.70999998 -0.028631933 4.4303522e-39 318 263
-0.0012448666 0.70999998 -0.028631933 4.5225479e-39 319 263
0 0.71100003 -0.028672259 4.9817239e-39 320 263
0.00124662 0.71100003 -0.028672259 4.9817239e-39 321 263
0.0024932399 0.71100003 -0.028672259 5.0739196e-39 322 263
0.0037398601 0.71100003 -0.028672259 5.2583122e-39 323 263
0.0050005065 0.713 -0.028752912 5.2597402e-39 324 263
0.0062593995 0.71399999 -0.028793238 5.3519358e-39 325 263
0.00753232 0.71600002 -0.028873893 5.4434097e-39 326 263
0.0087877065 0.71600002 -0.028873893 5.4434097e-39 327 263
0.01005712 0.71700001 -0.028914221 5.4434097e-39 328 263
0.01131426 0.71700001 -0.028914221 5.6274409e-39 329 263
0.012606465 0.71899998 -0.028994869 5.7189204e-39 330 263
0.013867113 0.71899998 -0.028994869 5.9036704e-39 331 263
0.0151488 0.72000003 -0.029035201 6.4546876e-39 332 263
0.016456785 0.722 -0.029115854 6.9156644e-39 333 263
0.017722692 0.722 -0.029115854 7.559596e-39 334 263
0.019014901 0.72299999 -0.029156178 7.4674004e-39 335 263
0.020338668 0.72500002 -0.029236834 9.3959654e-39 336 263
0.021669446 0.727 -0.029317487 1.4374529e-38 337 263
0.022944121 0.727 -0.029317487 1.6957818e-38 338 263
-0.040677335 0.72500002 -0.030508002 1.4011533e-38 288 264
-0.039406165 0.72500002 -0.030508002 8.3872393e-39 289 264
-0.0379772 0.722 -0.030381758 5.8147356e-39 290 264
-0.036609601 0.72000003 -0.0302976 6.0909624e-39 291 264
-0.035298105 0.71899998 -0.030255521 6.4593722e-39 292 264
-0.033942781 0.71700001 -0.030171359 6.3671765e-39 293 264
-0.032640055 0.71600002 -0.03012928 6.000552e-39 294 264
-0.031384666 0.71600002 -0.03012928 5.9083564e-39 295 264
-0.030045118 0.71399999 -0.030045118 5.8147356e-39 296 264
-0.028793238 0.71399999 -0.030045118 5.8147356e-39 297 264
-0.02754136 0.71399999 -0.030045118 5.5399592e-39 298 264
-0.026289478 0.71399999 -0.030045118 5.7243505e-39 299 264
-0.025002534 0.713 -0.030003037 5.4481363e-39 300 264
-0.023752406 0.713 -0.030003037 5.3559407e-39 301 264
-0.022502279 0.713 -0.030003037 5.170476e-39 302 264
-0.021252153 0.713 -0.030003037 4.9860848e-39 303 264
-0.01994592 0.71100003 -0.029918881 5.0761126e-39 304 264
-0.0186993 0.71100003 -0.029918881 4.8917213e-39 305 264
-0.01745268 0.71100003 -0.029918881 4.7991544e-39 306 264
-0.016183265 0.70999998 -0.029876797 4.7069587e-39 307 264
-0.014938398 0.70999998 -0.029876797 4.6147589e-39 308 264
-0.013693533 0.70999998 -0.029876797 4.5225633e-39 309 264
-0.012448666 0.70999998 -0.029876797 4.5218444e-39 310 264
-0.011203799 0.70999998 -0.029876797 4.4296488e-39 311 264
-0.0099589331 0.70999998 -0.029876797 4.3367315e-39 312 264
-0.008689519 0.708 -0.02979264 4.3367315e-39 313 264
-0.0074481601 0.708 -0.02979264 4.1530549e-39 314 264
-0.0062243328 0.70999998 -0.029876797 4.2452519e-39 315 264
-0.0049794666 0.70999998 -0.029876797 4.3378007e-39 316 264
-0.0037345996 0.70999998 -0.029876797 4.5225507e-39 317 264
-0.0024897333 0.70999998 -0.029876797 4.7984117e-39 318 264
-0.0012448666 0.70999998 -0.029876797 4.7984117e-39 319 264
0 0.71100003 -0.029918881 5.0739168e-39 320 264
0.00124662 0.71100003 -0.029918881 5.0739168e-39 321 264
0.0024932399 0.71100003 -0.029918881 5.0739196e-39 322 264
0.0037398601 0.71100003 -0.029918881 5.2583122e-39 323 264
0.0050005065 0.713 -0.030003037 5.3508638e-39 324 264
0.0062593995 0.71399999 -0.030045118 5.4430594e-39 325 264
0.00753232 0.71600002 -0.03012928 5.4434125e-39 326 264
0.0087877065 0.71600002 -0.03012928 5.4434125e-39 327 264
0.01005712 0.71700001 -0.030171359 5.7192764e-39 328 264
0.01131426 0.71700001 -0.030171359 5.811472e-39 329 264
0.012606465 0.71899998 -0.030255521 5.9947843e-39 330 264
0.013867113 0.71899998 -0.030255521 6.2717313e-39 331 264
0.0151488 0.72000003 -0.0302976 6.9149427e-39 332 264
0.016456785 0.722 -0.030381758 7.3759208e-39 333 264
0.017722692 0.722 -0.030381758 7.7436272e-39 334 264
0.019014901 0.72299999 -0.030423839 7.7436272e-39 335 264
0.020338668 0.72500002 -0.030508002 1.013353e-38 336 264
0.021609833 0.72500002 -0.030508002 1.4651116e-38 337 264
-0.042064216 0.727 -0.03186683 1.7050045e-38 287 265
-0.040677335 0.72500002 -0.031779166 1.3551275e-38 288 265
-0.039406165 0.72500002 -0.031779166 7.7429503e-39 289 265
-0.038029801 0.72299999 -0.031691495 5.7207407e-39 290 265
-0.03671129 0.722 -0.031647664 5.9973276e-39 291 265
-0.035298105 0.71899998 -0.031516165 6.3664577e-39 292 265
-0.033942781 0.71700001 -0.031428497 6.274262e-39 293 265
-0.032640055 0.71600002 -0.031384666 5.9980339e-39 294 265
-0.031384666 0.71600002 -0.031384666 5.8132839e-39 295 265
-0.030045118 0.71399999 -0.031296998 5.7214568e-39 296 265
-0.028793238 0.71399999 -0.031296998 5.5374257e-39 297 265
-0.02754136 0.71399999 -0.031296998 5.4452454e-39 298 265
-0.026289478 0.71399999 -0.031296998 5.5374411e-39 299 265
-0.025002534 0.713 -0.031253166 5.1697502e-39 300 265
-0.023752406 0.713 -0.031253166 5.1697502e-39 301 265
-0.022502279 0.713 -0.031253166 4.9853631e-39 302 265
-0.021252153 0.713 -0.031253166 4.8009719e-39 303 265
-0.01994592 0.71100003 -0.031165501 5.0753867e-39 304 265
-0.0186993 0.71100003 -0.031165501 4.7988012e-39 305 265
-0.01745268 0.71100003 -0.031165501 4.7991544e-39 306 265
-0.016183265 0.70999998 -0.031121666 4.6147617e-39 307 265
-0.014938398 0.70999998 -0.031121666 4.61404e-39 308 265
-0.013693533 0.70999998 -0.031121666 4.5218444e-39 309 265
-0.012448666 0.70999998 -0.031121666 4.6129582e-39 310 265
-0.011203799 0.70999998 -0.031121666 4.6129582e-39 311 265
-0.0099589331 0.70999998 -0.031121666 4.3367315e-39 312 265
-0.0087140659 0.70999998 -0.031121666 4.3367315e-39 313 265
-0.0074691991 0.70999998 -0.031121666 4.3378035e-39 314 265
-0.0062243328 0.70999998 -0.031121666 4.3378035e-39 315 265
-0.0049864799 0.71100003 -0.031165501 4.6136617e-39 316 265
-0.0037345996 0.70999998 -0.031121666 4.7062161e-39 317 265
-0.0024897333 0.70999998 -0.031121666 5.0735566e-39 318 265
-0.00124662 0.71100003 -0.031165501 5.1657523e-39 319 265
0 0.71100003 -0.031165501 5.3490617e-39 320 265
0.00124662 0.71100003 -0.031165501 5.3490617e-39 321 265
0.0024932399 0.71100003 -0.031165501 5.0735538e-39 322 265
0.0037398601 0.71100003 -0.031165501 5.2579451e-39 323 265
0.0050005065 0.713 -0.031253166 5.4423335e-39 324 265
0.0062593995 0.71399999 -0.031296998 5.5345292e-39 325 265
0.00753232 0.71600002 -0.031384666 5.626722e-39 326 265
0.0087999795 0.71700001 -0.031428497 5.626722e-39 327 265
0.01005712 0.71700001 -0.031428497 5.811472e-39 328 265
0.01134582 0.71899998 -0.031516165 5.9036676e-39 329 265
0.012606465 0.71899998 -0.031516165 6.2717285e-39 330 265
0.0138864 0.72000003 -0.03156 6.5479552e-39 331 265
0.0151488 0.72000003 -0.03156 7.0996913e-39 332 265
0.016456785 0.722 -0.031647664 7.560668e-39 333 265
0.017747238 0.72299999 -0.031691495 8.0191252e-39 334 265
0.019014901 0.72299999 -0.031691495 8.1113209e-39 335 265
0.020282559 0.72299999 -0.031691495 1.0963284e-38 336 265
-0.042064216 0.727 -0.033141505 1.7509216e-38 287 266
-0.040789545 0.727 -0.033141505 1.4010451e-38 288 266
