# .PCD v.7 - Point Cloud Data file format
FIELDS x y z rgb imX imY
SIZE 4 4 4 4 4 4
TYPE F F F F F F
COUNT 1 1 1 1 1 1
WIDTH 826
HEIGHT 1
VIEWPOINT 0 0 0 1 0 0 0
POINTS 826
DATA ascii
0.022407599 0.70999998 -0.027387066 1.6127749e-38 338 262
0.023652466 0.70999998 -0.027387066 1.7602879e-38 339 262
-0.051111419 0.71100003 -0.028672259 1.7240586e-38 279 263
-0.049794663 0.70999998 -0.028631933 1.4654767e-38 280 263
-0.048549797 0.70999998 -0.028631933 1.2995245e-38 281 263
-0.047304932 0.70999998 -0.028631933 1.3635202e-38 282 263
-0.046060063 0.70999998 -0.028631933 1.3082387e-38 283 263
-0.044688959 0.708 -0.02855128 1.3629093e-38 284 263
-0.043386232 0.70700002 -0.028510952 1.3536898e-38 285 263
-0.042087011 0.70599997 -0.028470624 1.3445058e-38 286 263
-0.040733438 0.704 -0.028389972 1.3260308e-38 287 263
-0.039442986 0.70300001 -0.028349647 1.3257793e-38 288 263
-0.038047329 0.69999999 -0.028228667 1.2520228e-38 289 263
-0.036819998 0.69999999 -0.028228667 1.2331523e-38 290 263
-0.035490975 0.69800001 -0.028148014 1.1593958e-38 291 263
-0.034267146 0.69800001 -0.028148014 1.1591439e-38 292 263
-0.03299598 0.69700003 -0.028107686 1.11301e-38 293 263
-0.031728316 0.69599998 -0.028067358 1.094392e-38 294 263
-0.030507999 0.69599998 -0.028067358 1.075917e-38 295 263
-0.029287677 0.69599998 -0.028067358 1.057551e-38 296 263
-0.028067358 0.69599998 -0.028067358 1.057551e-38 297 263
-0.026847038 0.69599998 -0.028067358 1.0395779e-38 298 263
-0.025626717 0.69599998 -0.028067358 1.1133703e-38 299 263
-0.0244064 0.69599998 -0.028067358 1.0769227e-38 300 263
-0.023119451 0.69400001 -0.027986705 9.7554349e-39 301 263
-0.021902639 0.69400001 -0.027986705 1.0302866e-38 302 263
-0.020745439 0.69599998 -0.028067358 1.0118475e-38 303 263
-0.019525118 0.69599998 -0.028067358 9.9348067e-39 304 263
-0.0182522 0.69400001 -0.027986705 1.0027002e-38 305 263
-0.01701084 0.69300002 -0.027946379 1.0301431e-38 306 263
-0.015795778 0.69300002 -0.027946379 1.01174e-38 307 263
-0.014580719 0.69300002 -0.027946379 1.0207798e-38 308 263
-0.01336566 0.69300002 -0.027946379 1.0207798e-38 309 263
-0.012168133 0.69400001 -0.027986705 1.0118825e-38 310 263
-0.01095132 0.69400001 -0.027986705 1.0579445e-38 311 263
-0.0097345067 0.69400001 -0.027986705 1.0674144e-38 312 263
-0.0085176928 0.69400001 -0.027986705 1.1227318e-38 313 263
-0.0073008798 0.69400001 -0.027986705 1.1416733e-38 314 263
-0.0060840664 0.69400001 -0.027986705 1.2062101e-38 315 263
-0.0048812795 0.69599998 -0.028067358 1.1973846e-38 316 263
-0.00366622 0.69700003 -0.028107686 1.2158237e-38 317 263
-0.0024441467 0.69700003 -0.028107686 1.2341905e-38 318 263
-0.0012220733 0.69700003 -0.028107686 1.2434102e-38 319 263
0 0.69800001 -0.028148014 1.2619215e-38 320 263
0.0012238267 0.69800001 -0.028148014 1.2619215e-38 321 263
0.0024476533 0.69800001 -0.028148014 1.2160758e-38 322 263
0.0036714801 0.69800001 -0.028148014 1.2160758e-38 323 263
0.0048953067 0.69800001 -0.028148014 1.1977105e-38 324 263
0.006119133 0.69800001 -0.028148014 1.2254052e-38 325 263
0.0073639993 0.69999999 -0.028228667 1.2161516e-38 326 263
0.0085913334 0.69999999 -0.028228667 1.0133212e-38 327 263
0.0098326923 0.70099998 -0.028268991 1.1788423e-38 328 263
0.011061779 0.70099998 -0.028268991 1.3263555e-38 329 263
0.012325933 0.70300001 -0.028349647 1.3269664e-38 330 263
0.013577812 0.704 -0.028389972 1.3731003e-38 331 263
0.014812159 0.704 -0.028389972 1.4008307e-38 332 263
0.016092092 0.70599997 -0.028470624 1.4377088e-38 333 263
0.017354494 0.70700002 -0.028510952 1.4744797e-38 334 263
0.018594101 0.70700002 -0.028510952 1.5021386e-38 335 263
0.01986176 0.708 -0.02855128 1.5297615e-38 336 263
0.021103119 0.708 -0.02855128 1.5666758e-38 337 263
0.022407599 0.70999998 -0.028631933 1.5852241e-38 338 263
0.023652466 0.70999998 -0.028631933 1.7419566e-38 339 263
-0.051111419 0.71100003 -0.029918881 1.7423898e-38 279 264
-0.049794663 0.70999998 -0.029876797 1.5024625e-38 280 264
-0.048549797 0.70999998 -0.029876797 1.3088517e-38 281 264
-0.047304932 0.70999998 -0.029876797 1.3360045e-38 282 264
-0.046060063 0.70999998 -0.029876797 1.2991264e-38 283 264
-0.044688959 0.708 -0.02979264 1.353797e-38 284 264
-0.043386232 0.70700002 -0.029750559 1.3169547e-38 285 264
-0.042087011 0.70599997 -0.029708479 1.3351788e-38 286 264
-0.040733438 0.704 -0.029624319 1.3167395e-38 287 264
-0.039330769 0.70099998 -0.029498078 1.3073045e-38 288 264
-0.038047329 0.69999999 -0.029455997 1.2243644e-38 289 264
-0.036819998 0.69999999 -0.029455997 1.260523e-38 290 264
-0.035490975 0.69800001 -0.029371841 1.1867665e-38 291 264
-0.034267146 0.69800001 -0.029371841 1.1313776e-38 292 264
-0.03299598 0.69700003 -0.02932976 1.0944633e-38 293 264
-0.031728316 0.69599998 -0.029287677 1.0759172e-38 294 264
-0.030507999 0.69599998 -0.029287677 1.0666977e-38 295 264
-0.029203519 0.69400001 -0.029203519 1.0299999e-38 296 264
-0.027986705 0.69400001 -0.029203519 1.048403e-38 297 264
-0.026847038 0.69599998 -0.029287677 1.021247e-38 298 264
-0.025626717 0.69599998 -0.029287677 1.104187e-38 299 264
-0.0244064 0.69599998 -0.029287677 1.0583763e-38 300 264
-0.023119451 0.69400001 -0.029203519 9.6621673e-39 301 264
-0.021902639 0.69400001 -0.029203519 1.0025926e-38 302 264
-0.020685827 0.69400001 -0.029203519 9.7493407e-39 303 264
-0.019525118 0.69599998 -0.029287677 9.6578667e-39 304 264
-0.0182522 0.69400001 -0.029203519 9.5656697e-39 305 264
-0.01701084 0.69300002 -0.029161438 9.9319383e-39 306 264
-0.015795778 0.69300002 -0.029161438 9.7471883e-39 307 264
-0.014580719 0.69300002 -0.029161438 1.0022333e-38 308 264
-0.01336566 0.69300002 -0.029161438 1.029856e-38 309 264
-0.012168133 0.69400001 -0.029203519 1.0211018e-38 310 264
-0.010935539 0.69300002 -0.029161438 1.0764192e-38 311 264
-0.0097204801 0.69300002 -0.029161438 1.0859612e-38 312 264
-0.0085176928 0.69400001 -0.029203519 1.1504981e-38 313 264
-0.0073008798 0.69400001 -0.029203519 1.1234859e-38 314 264
-0.0060840664 0.69400001 -0.029203519 1.1972424e-38 315 264
-0.0048882933 0.69700003 -0.02932976 1.1884526e-38 316 264
-0.00366622 0.69700003 -0.02932976 1.2161111e-38 317 264
-0.0024441467 0.69700003 -0.02932976 1.2346209e-38 318 264
-0.0012220733 0.69700003 -0.02932976 1.2438404e-38 319 264
0 0.69800001 -0.029371841 1.2347655e-38 320 264
0.0012238267 0.69800001 -0.029371841 1.2255459e-38 321 264
0.0024476533 0.69800001 -0.029371841 1.2070363e-38 322 264
0.0036714801 0.69800001 -0.029371841 1.1701582e-38 323 264
0.0048953067 0.69800001 -0.029371841 1.1699446e-38 324 264
0.006119133 0.69800001 -0.029371841 1.1423218e-38 325 264
0.0073639993 0.69999999 -0.029455997 1.1786272e-38 326 264
0.0086036054 0.70099998 -0.029498078 9.8501641e-39 327 264
0.0098326923 0.70099998 -0.029498078 1.0401548e-38 328 264
0.011061779 0.70099998 -0.029498078 1.2060711e-38 329 264
0.012325933 0.70300001 -0.029582238 1.2528872e-38 330 264
0.013577812 0.704 -0.029624319 1.3543384e-38 331 264
0.014854239 0.70599997 -0.029708479 1.3915034e-38 332 264
0.016092092 0.70599997 -0.029708479 1.4376372e-38 333 264
0.017354494 0.70700002 -0.029750559 1.4651883e-38 334 264
0.018594101 0.70700002 -0.029750559 1.4836274e-38 335 264
0.01986176 0.708 -0.02979264 1.5204701e-38 336 264
0.021103119 0.708 -0.02979264 1.5481288e-38 337 264
0.022407599 0.70999998 -0.029876797 1.5760041e-38 338 264
0.023652466 0.70999998 -0.029876797 1.7512118e-38 339 264
-0.051111419 0.71100003 -0.031165501 1.7331702e-38 279 265
-0.049794663 0.70999998 -0.031121666 1.5854389e-38 280 265
-0.048549797 0.70999998 -0.031121666 1.3918281e-38 281 265
-0.047304932 0.70999998 -0.031121666 1.3267494e-38 282 265
-0.046060063 0.70999998 -0.031121666 1.3267494e-38 283 265
-0.044688959 0.708 -0.031034 1.3540122e-38 284 265
-0.043386232 0.70700002 -0.030990168 1.3079144e-38 285 265
-0.042087011 0.70599997 -0.030946331 1.3259944e-38 286 265
-0.040733438 0.704 -0.030858666 1.3075194e-38 287 265
-0.039330769 0.70099998 -0.030727165 1.2887934e-38 288 265
-0.038047329 0.69999999 -0.030683333 1.2242565e-38 289 265
-0.036819998 0.69999999 -0.030683333 1.2237174e-38 290 265
-0.035490975 0.69800001 -0.030595668 1.1499609e-38 291 265
-0.034267146 0.69800001 -0.030595668 1.1221227e-38 292 265
-0.03299598 0.69700003 -0.030551834 1.0668053e-38 293 265
-0.031728316 0.69599998 -0.030507999 1.0299994e-38 294 265
-0.030507999 0.69599998 -0.030507999 1.0207798e-38 295 265
-0.029203519 0.69400001 -0.030420333 1.0208517e-38 296 265
-0.027986705 0.69400001 -0.030420333 1.0485462e-38 297 265
-0.026769891 0.69400001 -0.030420333 1.0213189e-38 298 265
-0.025553079 0.69400001 -0.030420333 1.0489776e-38 299 265
-0.0244064 0.69599998 -0.030507999 1.0305384e-38 300 265
-0.023119451 0.69400001 -0.030420333 9.7522105e-39 301 265
-0.021902639 0.69400001 -0.030420333 9.6574996e-39 302 265
-0.020685827 0.69400001 -0.030420333 9.5649452e-39 303 265
-0.019525118 0.69599998 -0.030507999 9.290159e-39 304 265
-0.0182522 0.69400001 -0.030420333 9.105409e-39 305 265
-0.01701084 0.69300002 -0.0303765 9.8383049e-39 306 265
-0.015795778 0.69300002 -0.0303765 1.0023055e-38 307 265
-0.014580719 0.69300002 -0.0303765 9.8408118e-39 308 265
-0.01336566 0.69300002 -0.0303765 1.0393986e-38 309 265
-0.012150601 0.69300002 -0.0303765 1.0213889e-38 310 265
-0.010935539 0.69300002 -0.0303765 1.0674866e-38 311 265
-0.0097204801 0.69300002 -0.0303765 1.0953956e-38 312 265
-0.0085176928 0.69400001 -0.030420333 1.1507129e-38 313 265
-0.0073008798 0.69400001 -0.030420333 1.1054413e-38 314 265
-0.0060840664 0.69400001 -0.030420333 1.1699783e-38 315 265
-0.0048672534 0.69400001 -0.030420333 1.1795203e-38 316 265
-0.00366622 0.69700003 -0.030551834 1.2163627e-38 317 265
-0.0024441467 0.69700003 -0.030551834 1.2072866e-38 318 265
-0.0012220733 0.69700003 -0.030551834 1.2349093e-38 319 265
0 0.69700003 -0.030551834 1.2440935e-38 320 265
0.0012238267 0.69800001 -0.030595668 1.2164708e-38 321 265
0.0024476533 0.69800001 -0.030595668 1.1886698e-38 322 265
0.0036714801 0.69800001 -0.030595668 1.1056578e-38 323 265
0.0048953067 0.69800001 -0.030595668 1.1418546e-38 324 265
0.0061366665 0.69999999 -0.030683333 1.0220003e-38 325 265
0.0073745195 0.70099998 -0.030727165 1.0673444e-38 326 265
0.0086036054 0.70099998 -0.030727165 1.0212467e-38 327 265
0.0098607466 0.70300001 -0.030814834 1.0213557e-38 328 265
0.01109334 0.70300001 -0.030814834 1.1135515e-38 329 265
0.012325933 0.70300001 -0.030814834 1.1971385e-38 330 265
0.013577812 0.704 -0.030858666 1.3538712e-38 331 265
0.014854239 0.70599997 -0.030946331 1.3821763e-38 332 265
0.016092092 0.70599997 -0.030946331 1.4374937e-38 333 265
0.017354494 0.70700002 -0.030990168 1.4925946e-38 334 265
0.0186204 0.708 -0.031034 1.5110337e-38 335 265
0.01986176 0.708 -0.031034 1.5570241e-38 336 265
0.021162732 0.70999998 -0.031121666 1.6031217e-38 337 265
0.022407599 0.70999998 -0.031121666 1.5760041e-38 338 265
0.023685781 0.71100003 -0.031165501 1.7327368e-38 339 265
-0.049794663 0.70999998 -0.032366529 1.6868188e-38 280 266
-0.048549797 0.70999998 -0.032366529 1.4655493e-38 281 266
-0.047304932 0.70999998 -0.032366529 1.3267131e-38 282 266
-0.045930319 0.708 -0.03227536 1.3267131e-38 283 266
-0.044625837 0.70700002 -0.032229774 1.390781e-38 284 266
-0.043324865 0.70599997 -0.032184184 1.3446831e-38 285 266
-0.042087011 0.70599997 -0.032184184 1.3627635e-38 286 266
-0.040733438 0.704 -0.032093015 1.3258493e-38 287 266
-0.039442986 0.70300001 -0.032047424 1.3254906e-38 288 266
-0.038101684 0.70099998 -0.031956252 1.2424787e-38 289 266
-0.036819998 0.69999999 -0.031910665 1.2420473e-38 290 266
-0.035490975 0.69800001 -0.031819493 1.1682907e-38 291 266
-0.034267146 0.69800001 -0.031819493 1.1404524e-38 292 266
-0.03299598 0.69700003 -0.03177391 1.103574e-38 293 266
-0.031728316 0.69599998 -0.031728316 1.0667324e-38 294 266
-0.030507999 0.69599998 -0.031728316 1.0759879e-38 295 266
-0.029203519 0.69400001 -0.031637147 1.048581e-38 296 266
-0.027986705 0.69400001 -0.031637147 1.0854592e-38 297 266
-0.026769891 0.69400001 -0.031637147 1.0856387e-38 298 266
-0.025553079 0.69400001 -0.031637147 1.0671996e-38 299 266
-0.0244064 0.69599998 -0.031728316 1.0578378e-38 300 266
-0.023119451 0.69400001 -0.031637147 9.9330089e-39 301 266
-0.021902639 0.69400001 -0.031637147 9.5656669e-39 302 266
-0.020685827 0.69400001 -0.031637147 9.4734713e-39 303 266
-0.019469013 0.69400001 -0.031637147 9.2894345e-39 304 266
-0.0182522 0.69400001 -0.031637147 9.2894345e-39 305 266
-0.017035386 0.69400001 -0.031637147 9.9326417e-39 306 266
-0.015795778 0.69300002 -0.031591557 1.0301066e-38 307 266
-0.014580719 0.69300002 -0.031591557 1.0304642e-38 308 266
-0.01336566 0.69300002 -0.031591557 1.0673426e-38 309 266
-0.012150601 0.69300002 -0.031591557 1.076812e-38 310 266
-0.010935539 0.69300002 -0.031591557 1.1321292e-38 311 266
-0.0097204801 0.69300002 -0.031591557 1.0865703e-38 312 266
-0.0085176928 0.69400001 -0.031637147 1.1603268e-38 313 266
-0.0073008798 0.69400001 -0.031637147 1.1056569e-38 314 266
-0.0060840664 0.69400001 -0.031637147 1.1701579e-38 315 266
-0.0048672534 0.69400001 -0.031637147 1.1429308e-38 316 266
-0.00366622 0.69700003 -0.03177391 1.1798089e-38 317 266
-0.0024441467 0.69700003 -0.03177391 1.2166149e-38 318 266
-0.0012220733 0.69700003 -0.03177391 1.2166149e-38 319 266
0 0.69700003 -0.03177391 1.2257626e-38 320 266
0.0012238267 0.69800001 -0.031819493 1.2072876e-38 321 266
0.0024476533 0.69800001 -0.031819493 1.1792346e-38 322 266
0.0036714801 0.69800001 -0.031819493 1.0962583e-38 323 266
0.0048953067 0.69800001 -0.031819493 1.0956492e-38 324 266
0.006119133 0.69800001 -0.031819493 9.481362e-39 325 266
0.0073639993 0.69999999 -0.031910665 9.6600177e-39 326 266
0.0086281532 0.70300001 -0.032047424 1.0397583e-38 327 266
0.0098607466 0.70300001 -0.032047424 1.0029183e-38 328 266
0.01109334 0.70300001 -0.032047424 1.0213934e-38 329 266
0.012325933 0.70300001 -0.032047424 1.1414994e-38 330 266
0.013577812 0.704 -0.032093015 1.3351102e-38 331 266
0.014854239 0.70599997 -0.032184184 1.3451552e-38 332 266
0.016092092 0.70599997 -0.032184184 1.4373867e-38 333 266
0.017354494 0.70700002 -0.032229774 1.4282743e-38 334 266
0.0186204 0.708 -0.03227536 1.4559331e-38 335 266
0.01986176 0.708 -0.03227536 1.5294731e-38 336 266
0.021162732 0.70999998 -0.032366529 1.5940101e-38 337 266
0.022407599 0.70999998 -0.032366529 1.6310695e-38 338 266
0.023685781 0.71100003 -0.032412119 1.7417401e-38 339 266
-0.048549797 0.70999998 -0.033611398 1.5485976e-38 281 267
-0.047304932 0.70999998 -0.033611398 1.3449727e-38 282 267
-0.045865446 0.70700002 -0.033469379 1.3449727e-38 283 267
-0.044625837 0.70700002 -0.033469379 1.3632671e-38 284 267
-0.043324865 0.70599997 -0.033422034 1.3448278e-38 285 267
-0.041967787 0.704 -0.03332736 1.3444334e-38 286 267
-0.040733438 0.704 -0.03332736 1.3167745e-38 287 267
-0.039442986 0.70300001 -0.033280019 1.270425e-38 288 267
-0.038101684 0.70099998 -0.03318534 1.187449e-38 289 267
-0.036819998 0.69999999 -0.033137999 1.2054565e-38 290 267
-0.035490975 0.69800001 -0.033043321 1.1317e-38 291 267
-0.034267146 0.69800001 -0.033043321 1.1131535e-38 292 267
-0.033043321 0.69800001 -0.033043321 1.0762393e-38 293 267
-0.031728316 0.69599998 -0.032948639 1.067128e-38 294 267
-0.030507999 0.69599998 -0.032948639 1.0947507e-38 295 267
-0.029287677 0.69599998 -0.032948639 1.0490482e-38 296 267
-0.028067358 0.69599998 -0.032948639 1.0858906e-38 297 267
-0.026769891 0.69400001 -0.032853961 1.0492997e-38 298 267
-0.025553079 0.69400001 -0.032853961 1.0216409e-38 299 267
-0.0244064 0.69599998 -0.032948639 1.0301787e-38 300 267
-0.023119451 0.69400001 -0.032853961 9.9330061e-39 301 267
-0.021902639 0.69400001 -0.032853961 9.1968858e-39 302 267
-0.020685827 0.69400001 -0.032853961 9.4734713e-39 303 267
-0.019469013 0.69400001 -0.032853961 9.4731027e-39 304 267
-0.0182522 0.69400001 -0.032853961 9.9340809e-39 305 267
-0.017035386 0.69400001 -0.032853961 9.8440306e-39 306 267
-0.015795778 0.69300002 -0.03280662 1.0673791e-38 307 267
-0.014580719 0.69300002 -0.03280662 1.0125997e-38 308 267
-0.01336566 0.69300002 -0.03280662 1.0679169e-38 309 267
-0.012150601 0.69300002 -0.03280662 1.0589842e-38 310 267
-0.010935539 0.69300002 -0.03280662 1.105046e-38 311 267
-0.0097345067 0.69400001 -0.032853961 1.0962568e-38 312 267
-0.0085176928 0.69400001 -0.032853961 1.1146961e-38 313 267
-0.0073008798 0.69400001 -0.032853961 1.1150549e-38 314 267
-0.0060840664 0.69400001 -0.032853961 1.1427496e-38 315 267
-0.0048672534 0.69400001 -0.032853961 1.1795922e-38 316 267
-0.00366622 0.69700003 -0.03299598 1.207251e-38 317 267
-0.0024441467 0.69700003 -0.03299598 1.2440222e-38 318 267
-0.0012220733 0.69700003 -0.03299598 1.2532418e-38 319 267
0 0.69700003 -0.03299598 1.2164371e-38 320 267
0.0012220733 0.69700003 -0.03299598 1.1426806e-38 321 267
0.0024476533 0.69800001 -0.033043321 1.0959363e-38 322 267
0.0036714801 0.69800001 -0.033043321 9.9455701e-39 323 267
0.0048953067 0.69800001 -0.033043321 1.0215337e-38 324 267
0.006119133 0.69800001 -0.033043321 9.0167951e-39 325 267
0.0073639993 0.69999999 -0.033137999 9.56962e-39 326 267
0.0086281532 0.70300001 -0.033280019 1.0030239e-38 327 267
0.0098607466 0.70300001 -0.033280019 9.8476432e-39 328 267
0.01109334 0.70300001 -0.033280019 9.6632519e-39 329 267
0.012343466 0.704 -0.03332736 1.0953275e-38 330 267
0.013616386 0.70599997 -0.033422034 1.2704632e-38 331 267
0.014854239 0.70599997 -0.033422034 1.271255e-38 332 267
0.016114887 0.70700002 -0.033469379 1.4095486e-38 333 267
0.017354494 0.70700002 -0.033469379 1.437422e-38 334 267
0.0186204 0.708 -0.033516716 1.4558612e-38 335 267
0.01986176 0.708 -0.033516716 1.5478046e-38 336 267
0.021162732 0.70999998 -0.033611398 1.6307808e-38 337 267
0.022407599 0.70999998 -0.033611398 1.6404338e-38 338 267
0.023852346 0.71600002 -0.03389544 1.72341e-38 339 267
-0.048549797 0.70999998 -0.034856264 1.6223907e-38 281 268
-0.047304932 0.70999998 -0.034856264 1.4097262e-38 282 268
-0.045865446 0.70700002 -0.034708988 1.2898718e-38 283 268
-0.044562716 0.70599997 -0.034659892 1.363339e-38 284 268
-0.043324865 0.70599997 -0.034659892 1.3264607e-38 285 268
-0.041967787 0.704 -0.034561705 1.3445406e-38 286 268
-0.040675577 0.70300001 -0.034512613 1.2984427e-38 287 268
-0.039442986 0.70300001 -0.034512613 1.3165931e-38 288 268
-0.038101684 0.70099998 -0.034414422 1.2612758e-38 289 268
-0.036819998 0.69999999 -0.034365334 1.2333646e-38 290 268
-0.035490975 0.69800001 -0.034267146 1.1688277e-38 291 268
-0.034267146 0.69800001 -0.034267146 1.1776877e-38 292 268
-0.033043321 0.69800001 -0.034267146 1.1408453e-38 293 268
-0.03177391 0.69700003 -0.034218054 1.1317701e-38 294 268
-0.030507999 0.69599998 -0.034168959 1.1686482e-38 295 268
-0.029287677 0.69599998 -0.034168959 1.1137621e-38 296 268
-0.028067358 0.69599998 -0.034168959 1.1414568e-38 297 268
-0.026769891 0.69400001 -0.034070771 1.1414581e-38 298 268
-0.025553079 0.69400001 -0.034070771 1.0123842e-38 299 268
-0.0244064 0.69599998 -0.034168959 1.0025558e-38 300 268
-0.023186078 0.69599998 -0.034168959 9.7486106e-39 301 268
-0.021965759 0.69599998 -0.034168959 9.4727496e-39 302 268
-0.020745439 0.69599998 -0.034168959 9.6574996e-39 303 268
-0.019469013 0.69400001 -0.034070771 9.8440306e-39 304 268
-0.0182522 0.69400001 -0.034070771 1.0213173e-38 305 268
-0.017035386 0.69400001 -0.034070771 1.0308942e-38 306 268
-0.015795778 0.69300002 -0.034021679 1.0862116e-38 307 268
-0.014580719 0.69300002 -0.034021679 1.0680589e-38 308 268
-0.01336566 0.69300002 -0.034021679 1.1049732e-38 309 268
-0.012150601 0.69300002 -0.034021679 1.0960051e-38 310 268
-0.010935539 0.69300002 -0.034021679 1.1421028e-38 311 268
-0.0097345067 0.69400001 -0.034070771 1.0689929e-38 312 268
-0.0085176928 0.69400001 -0.034070771 1.1058351e-38 313 268
-0.0073219193 0.69599998 -0.034168959 1.1151633e-38 314 268
-0.0061015999 0.69599998 -0.034168959 1.1427859e-38 315 268
-0.0048882933 0.69700003 -0.034218054 1.1611906e-38 316 268
-0.00366622 0.69700003 -0.034218054 1.1704103e-38 317 268
-0.0024441467 0.69700003 -0.034218054 1.1886709e-38 318 268
-0.0012220733 0.69700003 -0.034218054 1.2071459e-38 319 268
0 0.69700003 -0.034218054 1.1791645e-38 320 268
0.0012220733 0.69700003 -0.034218054 1.1146276e-38 321 268
0.0024476533 0.69800001 -0.034267146 1.0310051e-38 322 268
0.0036714801 0.69800001 -0.034267146 9.48029e-39 323 268
0.0048953067 0.69800001 -0.034267146 8.9264156e-39 324 268
0.0061366665 0.69999999 -0.034365334 8.8342199e-39 325 268
0.0073955595 0.70300001 -0.034512613 9.0214852e-39 326 268
0.0086281532 0.70300001 -0.034512613 9.4821047e-39 327 268
0.0098607466 0.70300001 -0.034512613 9.6650526e-39 328 268
0.01109334 0.70300001 -0.034512613 9.4803026e-39 329 268
0.012343466 0.704 -0.034561705 1.0675256e-38 330 268
0.013616386 0.70599997 -0.034659892 1.1965994e-38 331 268
0.01487528 0.70700002 -0.034708988 1.2432368e-38 332 268
0.016114887 0.70700002 -0.034708988 1.4091889e-38 333 268
0.017354494 0.70700002 -0.034708988 1.4372066e-38 334 268
0.0186204 0.708 -0.034758076 1.4741209e-38 335 268
0.019917866 0.70999998 -0.034856264 1.5387294e-38 336 268
0.021162732 0.70999998 -0.034856264 1.649364e-38 337 268
0.022533838 0.71399999 -0.035052639 1.6406503e-38 338 268
-0.048549797 0.70999998 -0.036101133 1.6593769e-38 281 269
-0.047105055 0.70700002 -0.035948593 1.520577e-38 282 269
-0.045865446 0.70700002 -0.035948593 1.2993435e-38 283 269
-0.044562716 0.70599997 -0.035897743 1.3173133e-38 284 269
-0.043324865 0.70599997 -0.035897743 1.326533e-38 285 269
-0.041967787 0.704 -0.035796054 1.3355011e-38 286 269
-0.040675577 0.70300001 -0.035745207 1.3170261e-38 287 269
-0.039442986 0.70300001 -0.035745207 1.30759e-38 288 269
-0.038101684 0.70099998 -0.035643511 1.2707119e-38 289 269
-0.036819998 0.69999999 -0.035592664 1.2521281e-38 290 269
-0.035490975 0.69800001 -0.035490975 1.2060303e-38 291 269
-0.034267146 0.69800001 -0.035490975 1.1965224e-38 292 269
-0.033043321 0.69800001 -0.035490975 1.1780474e-38 293 269
-0.03177391 0.69700003 -0.035440128 1.1414931e-38 294 269
-0.030507999 0.69599998 -0.035389278 1.1599681e-38 295 269
-0.029287677 0.69599998 -0.035389278 1.1417099e-38 296 269
-0.028067358 0.69599998 -0.035389278 1.1601849e-38 297 269
-0.026769891 0.69400001 -0.035287585 1.1509653e-38 298 269
-0.025553079 0.69400001 -0.035287585 9.9419674e-39 299 269
-0.024336265 0.69400001 -0.035287585 9.9329893e-39 300 269
-0.023119451 0.69400001 -0.035287585 9.748598e-39 301 269
-0.021965759 0.69599998 -0.035389278 9.7489637e-39 302 269
-0.020745439 0.69599998 -0.035389278 1.0394333e-38 303 269
-0.019469013 0.69400001 -0.035287585 9.8479837e-39 304 269
-0.0182522 0.69400001 -0.035287585 1.0401157e-38 305 269
-0.017035386 0.69400001 -0.035287585 1.0220709e-38 306 269
-0.015818574 0.69400001 -0.035287585 1.0681688e-38 307 269
-0.014580719 0.69300002 -0.035236739 1.0683833e-38 308 269
-0.01336566 0.69300002 -0.035236739 1.096042e-38 309 269
-0.012150601 0.69300002 -0.035236739 1.0779619e-38 310 269
-0.010935539 0.69300002 -0.035236739 1.1056566e-38 311 269
-0.0097345067 0.69400001 -0.035287585 1.0691373e-38 312 269
-0.0085422397 0.69599998 -0.035389278 1.096796e-38 313 269
-0.0073219193 0.69599998 -0.035389278 1.115128e-38 314 269
-0.0061015999 0.69599998 -0.035389278 1.1335311e-38 315 269
-0.0048882933 0.69700003 -0.035440128 1.133496e-38 316 269
-0.00366622 0.69700003 -0.035440128 1.1519352e-38 317 269
-0.0024441467 0.69700003 -0.035440128 1.2160052e-38 318 269
-0.0012220733 0.69700003 -0.035440128 1.179163e-38 319 269
0 0.69800001 -0.035490975 1.1509663e-38 320 269
0.0012238267 0.69800001 -0.035490975 1.0311479e-38 321 269
0.0024476533 0.69800001 -0.035490975 8.7395006e-39 322 269
0.0036714801 0.69800001 -0.035490975 8.3710782e-39 323 269
0.0049093333 0.69999999 -0.035592664 8.5558408e-39 324 269
0.0061454331 0.70099998 -0.035643511 9.1086558e-39 325 269
0.0073955595 0.70300001 -0.035745207 8.7470564e-39 326 269
0.0086281532 0.70300001 -0.035745207 9.0240034e-39 327 269
0.0098747732 0.704 -0.035796054 9.5739346e-39 328 269
0.011109119 0.704 -0.035796054 9.5739346e-39 329 269
0.012343466 0.704 -0.035796054 1.0492299e-38 330 269
0.013616386 0.70599997 -0.035897743 1.1045114e-38 331 269
0.01487528 0.70700002 -0.035948593 1.2061067e-38 332 269
0.016114887 0.70700002 -0.035948593 1.3628393e-38 333 269
0.017379038 0.708 -0.03599944 1.4094759e-38 334 269
0.0186204 0.708 -0.03599944 1.4740128e-38 335 269
0.01986176 0.708 -0.03599944 1.5479495e-38 336 269
0.021162732 0.70999998 -0.036101133 1.6770234e-38 337 269
-0.047105055 0.70700002 -0.037188202 1.6588354e-38 282 270
-0.045865446 0.70700002 -0.037188202 1.3914681e-38 283 270
-0.044562716 0.70599997 -0.037135597 1.3172779e-38 284 270
-0.043324865 0.70599997 -0.037135597 1.3449724e-38 285 270
-0.041967787 0.704 -0.037030395 1.3447926e-38 286 270
-0.040733438 0.704 -0.037030395 1.3263175e-38 287 270
-0.039442986 0.70300001 -0.036977798 1.3077698e-38 288 270
-0.038210396 0.70300001 -0.036977798 1.2893307e-38 289 270
-0.036819998 0.69999999 -0.036819998 1.2524879e-38 290 270
-0.035592664 0.69999999 -0.036819998 1.2247932e-38 291 270
-0.034267146 0.69800001 -0.0367148 1.2429435e-38 292 270
-0.033043321 0.69800001 -0.0367148 1.2152849e-38 293 270
-0.03177391 0.69700003 -0.036662199 1.1878779e-38 294 270
-0.030507999 0.69599998 -0.036609598 1.1878779e-38 295 270
-0.029287677 0.69599998 -0.036609598 1.1787679e-38 296 270
-0.028067358 0.69599998 -0.036609598 1.1879875e-38 297 270
-0.026769891 0.69400001 -0.036504399 1.1695833e-38 298 270
-0.025553079 0.69400001 -0.036504399 1.0221063e-38 299 270
-0.024336265 0.69400001 -0.036504399 1.0487585e-38 300 270
-0.023119451 0.69400001 -0.036504399 1.0026609e-38 301 270
-0.021965759 0.69599998 -0.036609598 1.0028778e-38 302 270
-0.020745439 0.69599998 -0.036609598 1.0674147e-38 303 270
-0.019469013 0.69400001 -0.036504399 1.0311829e-38 304 270
-0.0182522 0.69400001 -0.036504399 1.0680613e-38 305 270
-0.017035386 0.69400001 -0.036504399 1.049981e-38 306 270
-0.015818574 0.69400001 -0.036504399 1.0684203e-38 307 270
-0.014580719 0.69300002 -0.036451802 1.0961499e-38 308 270
-0.01336566 0.69300002 -0.036451802 1.1237726e-38 309 270
-0.012150601 0.69300002 -0.036451802 1.087397e-38 310 270
-0.01095132 0.69400001 -0.036504399 1.1242752e-38 311 270
-0.0097345067 0.69400001 -0.036504399 1.1059081e-38 312 270
-0.0085422397 0.69599998 -0.036609598 1.1059081e-38 313 270
-0.0073219193 0.69599998 -0.036609598 1.1425711e-38 314 270
-0.0061015999 0.69599998 -0.036609598 1.1425711e-38 315 270
-0.0048882933 0.69700003 -0.036662199 1.1517557e-38 316 270
-0.00366622 0.69700003 -0.036662199 1.1425361e-38 317 270
-0.0024441467 0.69700003 -0.036662199 1.2064269e-38 318 270
-0.0012238267 0.69800001 -0.0367148 1.1326704e-38 319 270
0 0.69800001 -0.0367148 1.1136934e-38 320 270
0.0012238267 0.69800001 -0.0367148 1.0215337e-38 321 270
0.0024476533 0.69800001 -0.0367148 8.554759e-39 322 270
0.0036714801 0.69800001 -0.0367148 8.554759e-39 323 270
0.0049093333 0.69999999 -0.036819998 8.5562009e-39 324 270
0.0061629666 0.70300001 -0.036977798 9.2015703e-39 325 270
0.0073955595 0.70300001 -0.036977798 8.7484885e-39 326 270
0.0086281532 0.70300001 -0.036977798 8.8406855e-39 327 270
0.0098747732 0.704 -0.037030395 9.2991455e-39 328 270
0.011109119 0.704 -0.037030395 9.2069485e-39 329 270
0.012343466 0.704 -0.037030395 9.7565322e-39 330 270
0.013616386 0.70599997 -0.037135597 1.003276e-38 331 270
0.01487528 0.70700002 -0.037188202 1.1045117e-38 332 270
0.01613768 0.708 -0.0372408 1.2981225e-38 333 270
0.017379038 0.708 -0.0372408 1.3999686e-38 334 270
0.0186204 0.708 -0.0372408 1.5014198e-38 335 270
0.01986176 0.708 -0.0372408 1.5571335e-38 336 270
0.021162732 0.70999998 -0.037345998 1.6862074e-38 337 270
-0.045865446 0.70700002 -0.038427804 1.4560776e-38 283 271
-0.044625837 0.70700002 -0.038427804 1.3357897e-38 284 271
-0.043324865 0.70599997 -0.038373452 1.3357897e-38 285 271
-0.041967787 0.704 -0.038264744 1.3447573e-38 286 271
-0.040733438 0.704 -0.038264744 1.3355376e-38 287 271
-0.039499093 0.704 -0.038264744 1.3079497e-38 288 271
-0.038210396 0.70300001 -0.038210396 1.2987301e-38 289 271
-0.036872596 0.70099998 -0.038101684 1.271071e-38 290 271
-0.035592664 0.69999999 -0.038047329 1.2618515e-38 291 271
-0.034365334 0.69999999 -0.038047329 1.2616347e-38 292 271
-0.033043321 0.69800001 -0.037938625 1.2339761e-38 293 271
-0.031819493 0.69800001 -0.037938625 1.1789462e-38 294 271
-0.030507999 0.69599998 -0.037829921 1.1789462e-38 295 271
-0.029287677 0.69599998 -0.037829921 1.197314e-38 296 271
-0.028067358 0.69599998 -0.037829921 1.2065694e-38 297 271
-0.026769891 0.69400001 -0.037721213 1.1790897e-38 298 271
-0.025553079 0.69400001 -0.037721213 1.0777105e-38 299 271
-0.024336265 0.69400001 -0.037721213 1.0860668e-38 300 271
-0.023119451 0.69400001 -0.037721213 1.0768471e-38 301 271
-0.021965759 0.69599998 -0.037829921 1.0585526e-38 302 271
-0.020745439 0.69599998 -0.037829921 1.0954309e-38 303 271
-0.019525118 0.69599998 -0.037829921 1.0774231e-38 304 271
-0.018304799 0.69599998 -0.037829921 1.1143013e-38 305 271
-0.017084479 0.69599998 -0.037829921 1.0870022e-38 306 271
-0.015818574 0.69400001 -0.037721213 1.0870022e-38 307 271
-0.01460176 0.69400001 -0.037721213 1.1055487e-38 308 271
-0.013384946 0.69400001 -0.037721213 1.1239878e-38 309 271
-0.012168133 0.69400001 -0.037721213 1.1059084e-38 310 271
-0.01095132 0.69400001 -0.037721213 1.115128e-38 311 271
-0.0097345067 0.69400001 -0.037721213 1.1242043e-38 312 271
-0.0085422397 0.69599998 -0.037829921 1.1149846e-38 313 271
-0.0073219193 0.69599998 -0.037829921 1.1332445e-38 314 271
-0.0061103669 0.69700003 -0.037884273 1.1240249e-38 315 271
-0.0048882933 0.69700003 -0.037884273 1.1421783e-38 316 271
-0.00366622 0.69700003 -0.037884273 1.0961164e-38 317 271
-0.0024441467 0.69700003 -0.037884273 1.1598291e-38 318 271
-0.0012238267 0.69800001 -0.037938625 1.0952922e-38 319 271
0 0.69800001 -0.037938625 1.0582347e-38 320 271
0.0012238267 0.69800001 -0.037938625 9.9369774e-39 321 271
0.0024546667 0.69999999 -0.038047329 9.0146581e-39 322 271
0.0036819996 0.69999999 -0.038047329 8.7384314e-39 323 271
0.0049163462 0.70099998 -0.038101684 8.3736075e-39 324 271
0.0061629666 0.70300001 -0.038210396 8.9267813e-39 325 271
0.0073955595 0.70300001 -0.038210396 8.7484885e-39 326 271
0.0086404262 0.704 -0.038264744 9.117271e-39 327 271
0.0098747732 0.704 -0.038264744 9.2069485e-39 328 271
0.011109119 0.704 -0.038264744 9.0221985e-39 329 271
0.012378532 0.70599997 -0.038373452 9.5721535e-39 330 271
0.013616386 0.70599997 -0.038373452 9.8487418e-39 331 271
0.01487528 0.70700002 -0.038427804 1.0491593e-38 332 271
0.016114887 0.70700002 -0.038427804 1.1874528e-38 333 271
0.017354494 0.70700002 -0.038427804 1.3814576e-38 334 271
0.018594101 0.70700002 -0.038427804 1.5105315e-38 335 271
0.019833706 0.70700002 -0.038427804 1.5388744e-38 336 271
0.021073313 0.70700002 -0.038427804 1.6494733e-38 337 271
-0.044625837 0.70700002 -0.039667413 1.4004713e-38 284 272
-0.043324865 0.70599997 -0.039611302 1.2529581e-38 285 272
-0.042087011 0.70599997 -0.039611302 1.3537967e-38 286 272
-0.040849157 0.70599997 -0.039611302 1.3630521e-38 287 272
-0.039499093 0.704 -0.039499093 1.3172781e-38 288 272
-0.038264744 0.704 -0.039499093 1.2896553e-38 289 272
-0.036977798 0.70300001 -0.039442986 1.271144e-38 290 272
-0.035592664 0.69999999 -0.039274666 1.2526689e-38 291 272
-0.034365334 0.69999999 -0.039274666 1.2434128e-38 292 272
-0.033043321 0.69800001 -0.039162453 1.2157541e-38 293 272
-0.031819493 0.69800001 -0.039162453 1.1882029e-38 294 272
-0.030551834 0.69700003 -0.039106347 1.2066421e-38 295 272
-0.02932976 0.69700003 -0.039106347 1.1791276e-38 296 272
-0.028067358 0.69599998 -0.039050236 1.2160057e-38 297 272
-0.026769891 0.69400001 -0.038938027 1.18849e-38 298 272
-0.025553079 0.69400001 -0.038938027 1.1423922e-38 299 272
-0.0244064 0.69599998 -0.039050236 1.1051899e-38 300 272
-0.023186078 0.69599998 -0.039050236 1.0867148e-38 301 272
-0.021965759 0.69599998 -0.039050236 1.0774952e-38 302 272
-0.020745439 0.69599998 -0.039050236 1.0959345e-38 303 272
-0.019553173 0.69700003 -0.039106347 1.0777826e-38 304 272
-0.018331099 0.69700003 -0.039106347 1.0962218e-38 305 272
-0.017084479 0.69599998 -0.039050236 1.0780345e-38 306 272
-0.015864158 0.69599998 -0.039050236 1.0780345e-38 307 272
-0.01460176 0.69400001 -0.038938027 1.0873619e-38 308 272
-0.013384946 0.69400001 -0.038938027 1.1242043e-38 309 272
-0.012168133 0.69400001 -0.038938027 1.0968333e-38 310 272
-0.01095132 0.69400001 -0.038938027 1.0876137e-38 311 272
-0.0097345067 0.69400001 -0.038938027 1.1332089e-38 312 272
-0.0085422397 0.69599998 -0.039050236 1.1055862e-38 313 272
-0.0073219193 0.69599998 -0.039050236 1.1328856e-38 314 272
-0.0061103669 0.69700003 -0.039106347 1.1144105e-38 315 272
-0.0048882933 0.69700003 -0.039106347 1.132455e-38 316 272
-0.00366622 0.69700003 -0.039106347 1.0402953e-38 317 272
-0.0024441467 0.69700003 -0.039106347 1.0305384e-38 318 272
-0.0012238267 0.69800001 -0.039162453 1.039758e-38 319 272
0 0.69800001 -0.039162453 9.6629016e-39 320 272
0.0012238267 0.69800001 -0.039162453 9.2941191e-39 321 272
0.0024546667 0.69999999 -0.039274666 8.9238974e-39 322 272
0.0036819996 0.69999999 -0.039274666 8.5547562e-39 323 272
0.0049163462 0.70099998 -0.039330769 8.3732446e-39 324 272
0.0061629666 0.70300001 -0.039442986 8.9264184e-39 325 272
0.0074060797 0.704 -0.039499093 8.839252e-39 326 272
0.0086404262 0.704 -0.039499093 9.0240034e-39 327 272
0.0098747732 0.704 -0.039499093 9.2969931e-39 328 272
0.011140679 0.70599997 -0.039611302 9.2047975e-39 329 272
0.012378532 0.70599997 -0.039611302 9.4792334e-39 330 272
0.013635674 0.70700002 -0.039667413 9.9402116e-39 331 272
0.01487528 0.70700002 -0.039667413 1.0215354e-38 332 272
0.016114887 0.70700002 -0.039667413 1.1045114e-38 333 272
0.017354494 0.70700002 -0.039667413 1.335432e-38 334 272
0.018594101 0.70700002 -0.039667413 1.5014201e-38 335 272
0.019833706 0.70700002 -0.039667413 1.5206165e-38 336 272
-0.042087011 0.70599997 -0.040849157 1.2986595e-38 286 273
-0.040849157 0.70599997 -0.040849157 1.3355376e-38 287 273
-0.039499093 0.704 -0.040733438 1.28962e-38 288 273
-0.038210396 0.70300001 -0.040675577 1.28962e-38 289 273
-0.036977798 0.70300001 -0.040675577 1.289475e-38 290 273
-0.035592664 0.69999999 -0.040502001 1.2710357e-38 291 273
-0.034365334 0.69999999 -0.040502001 1.2617077e-38 292 273
-0.033043321 0.69800001 -0.040386278 1.2432326e-38 293 273
-0.031819493 0.69800001 -0.040386278 1.225009e-38 294 273
-0.030551834 0.69700003 -0.040328421 1.2434481e-38 295 273
-0.02932976 0.69700003 -0.040328421 1.2160408e-38 296 273
-0.028067358 0.69599998 -0.040270556 1.2344799e-38 297 273
-0.026847038 0.69599998 -0.040270556 1.2252957e-38 298 273
-0.025626717 0.69599998 -0.040270556 1.1699783e-38 299 273
-0.0244064 0.69599998 -0.040270556 1.1788366e-38 300 273
-0.023186078 0.69599998 -0.040270556 1.1788366e-38 301 273
-0.021965759 0.69599998 -0.040270556 1.1421726e-38 302 273
-0.020745439 0.69599998 -0.040270556 1.1513922e-38 303 273
-0.019553173 0.69700003 -0.040328421 1.1147666e-38 304 273
-0.018331099 0.69700003 -0.040328421 1.1239863e-38 305 273
-0.017084479 0.69599998 -0.040270556 1.1056919e-38 306 273
-0.015864158 0.69599998 -0.040270556 1.124095e-38 307 273
-0.014643839 0.69599998 -0.040270556 1.1058004e-38 308 273
-0.013384946 0.69400001 -0.040154841 1.1242396e-38 309 273
-0.012168133 0.69400001 -0.040154841 1.1150932e-38 310 273
-0.010982879 0.69599998 -0.040270556 1.0873985e-38 311 273
-0.0097625591 0.69599998 -0.040270556 1.1422137e-38 312 273
-0.0085422397 0.69599998 -0.040270556 1.0868963e-38 313 273
-0.00733244 0.69700003 -0.040328421 1.1233805e-38 314 273
-0.0061103669 0.69700003 -0.040328421 1.0588435e-38 315 273
-0.0048882933 0.69700003 -0.040328421 1.049265e-38 316 273
-0.00366622 0.69700003 -0.040328421 9.7550846e-39 317 273
-0.0024441467 0.69700003 -0.040328421 9.7543784e-39 318 273
-0.0012238267 0.69800001 -0.040386278 9.846574e-39 319 273
0 0.69800001 -0.040386278 9.4803082e-39 320 273
0.0012238267 0.69800001 -0.040386278 8.9271344e-39 321 273
0.0024546667 0.69999999 -0.040502001 8.9228128e-39 322 273
0.0036872597 0.70099998 -0.040559858 8.9228128e-39 323 273
0.0049303733 0.70300001 -0.040675577 8.1902924e-39 324 273
0.0061717331 0.704 -0.040733438 8.8356619e-39 325 273
0.0074060797 0.704 -0.040733438 8.7459844e-39 326 273
0.0086404262 0.704 -0.040733438 8.8385387e-39 327 273
0.0099028256 0.70599997 -0.040849157 9.2037255e-39 328 273
0.011140679 0.70599997 -0.040849157 9.1115299e-39 329 273
0.012396066 0.70700002 -0.040907022 9.1118956e-39 330 273
0.013635674 0.70700002 -0.040907022 9.2040912e-39 331 273
0.01487528 0.70700002 -0.040907022 9.3873937e-39 332 273
0.01613768 0.708 -0.040964879 1.0032763e-38 333 273
0.017379038 0.708 -0.040964879 1.3173172e-38 334 273
0.018594101 0.70700002 -0.040907022 1.4463911e-38 335 273
0.019833706 0.70700002 -0.040907022 1.4104505e-38 336 273
-0.040733438 0.704 -0.041967787 1.2343765e-38 287 274
-0.039499093 0.704 -0.041967787 1.2894049e-38 288 274
-0.038210396 0.70300001 -0.041908171 1.2986245e-38 289 274
-0.036819998 0.69999999 -0.041729331 1.2894046e-38 290 274
-0.035592664 0.69999999 -0.041729331 1.2709654e-38 291 274
-0.034365334 0.69999999 -0.041729331 1.243378e-38 292 274
-0.033137999 0.69999999 -0.041729331 1.224903e-38 293 274
-0.031819493 0.69800001 -0.041610107 1.2250102e-38 294 274
-0.030595668 0.69800001 -0.041610107 1.2434493e-38 295 274
-0.029371841 0.69800001 -0.041610107 1.2252617e-38 296 274
-0.028107686 0.69700003 -0.041550495 1.2252617e-38 297 274
-0.026885614 0.69700003 -0.041550495 1.2068941e-38 298 274
-0.025663542 0.69700003 -0.041550495 1.1791995e-38 299 274
-0.024441468 0.69700003 -0.041550495 1.179163e-38 300 274
-0.023219392 0.69700003 -0.041550495 1.1699432e-38 301 274
-0.02199732 0.69700003 -0.041550495 1.1241323e-38 302 274
-0.020775247 0.69700003 -0.041550495 1.151791e-38 303 274
-0.019581227 0.69800001 -0.041610107 1.0966531e-38 304 274
-0.0183574 0.69800001 -0.041610107 1.0966531e-38 305 274
-0.017109027 0.69700003 -0.041550495 1.0966534e-38 306 274
-0.015886955 0.69700003 -0.041550495 1.0966534e-38 307 274
-0.014643839 0.69599998 -0.041490879 1.1058734e-38 308 274
-0.013423519 0.69599998 -0.041490879 1.1058734e-38 309 274
-0.0122032 0.69599998 -0.041490879 1.1057303e-38 310 274
-0.010982879 0.69599998 -0.041490879 1.0780717e-38 311 274
-0.0097625591 0.69599998 -0.041490879 1.1235953e-38 312 274
-0.0085545136 0.69700003 -0.041550495 1.0682781e-38 313 274
-0.00733244 0.69700003 -0.041550495 1.0860353e-38 314 274
-0.0061103669 0.69700003 -0.041550495 1.0583766e-38 315 274
-0.0048882933 0.69700003 -0.041550495 9.8451292e-39 316 274
-0.0036714801 0.69800001 -0.041610107 9.6607366e-39 317 274
-0.0024476533 0.69800001 -0.041610107 9.8458481e-39 318 274
-0.0012238267 0.69800001 -0.041610107 1.0122435e-38 319 274
0 0.69800001 -0.041610107 9.2058737e-39 320 274
0.0012273333 0.69999999 -0.041729331 8.7445354e-39 321 274
0.0024581731 0.70099998 -0.041788943 8.6494699e-39 322 274
0.0036977797 0.70300001 -0.041908171 8.2810461e-39 323 274
0.0049373866 0.704 -0.041967787 8.4665234e-39 324 274
0.0061717331 0.704 -0.041967787 8.9278617e-39 325 274
0.0074271196 0.70599997 -0.042087011 8.8385359e-39 326 274
0.0086649731 0.70599997 -0.042087011 8.8385359e-39 327 274
0.0099028256 0.70599997 -0.042087011 9.1115299e-39 328 274
0.011156459 0.70700002 -0.042146627 9.1115299e-39 329 274
0.0124136 0.708 -0.042206239 8.9278645e-39 330 274
0.013654959 0.708 -0.042206239 9.1118956e-39 331 274
0.01489632 0.708 -0.042206239 8.9285834e-39 332 274
0.01613768 0.708 -0.042206239 9.8505397e-39 333 274
0.017379038 0.708 -0.042206239 1.2716883e-38 334 274
0.018594101 0.70700002 -0.042146627 1.3547002e-38 335 274
-0.039442986 0.70300001 -0.043140765 1.2341247e-38 288 275
-0.038210396 0.70300001 -0.043140765 1.2525638e-38 289 275
-0.036819998 0.69999999 -0.042956665 1.2617105e-38 290 275
-0.035592664 0.69999999 -0.042956665 1.2433074e-38 291 275
-0.034365334 0.69999999 -0.042956665 1.2524897e-38 292 275
-0.033137999 0.69999999 -0.042956665 1.2524897e-38 293 275
-0.031910665 0.69999999 -0.042956665 1.2342301e-38 294 275
-0.030595668 0.69800001 -0.042833932 1.2526692e-38 295 275
-0.029371841 0.69800001 -0.042833932 1.2527409e-38 296 275
-0.028148014 0.69800001 -0.042833932 1.2619964e-38 297 275
-0.026885614 0.69700003 -0.042772565 1.2344802e-38 298 275
-0.025663542 0.69700003 -0.042772565 1.2252606e-38 299 275
-0.024476532 0.69800001 -0.042833932 1.2160758e-38 300 275
-0.023252707 0.69800001 -0.042833932 1.2068563e-38 301 275
-0.02202888 0.69800001 -0.042833932 1.1701932e-38 302 275
-0.020805053 0.69800001 -0.042833932 1.1885964e-38 303 275
-0.019581227 0.69800001 -0.042833932 1.1334592e-38 304 275
-0.0183574 0.69800001 -0.042833932 1.1334592e-38 305 275
-0.017109027 0.69700003 -0.042772565 1.1425711e-38 306 275
-0.015886955 0.69700003 -0.042772565 1.1241679e-38 307 275
-0.01466488 0.69700003 -0.042772565 1.10573e-38 308 275
-0.013423519 0.69599998 -0.042711195 1.0873269e-38 309 275
-0.0122032 0.69599998 -0.042711195 1.1238108e-38 310 275
-0.01099866 0.69700003 -0.042772565 1.0961161e-38 311 275
-0.0097765867 0.69700003 -0.042772565 1.1141609e-38 312 275
-0.0085545136 0.69700003 -0.042772565 1.0035262e-38 313 275
-0.00733244 0.69700003 -0.042772565 1.0490146e-38 314 275
-0.006119133 0.69800001 -0.042833932 9.8447761e-39 315 275
-0.0048953067 0.69800001 -0.042833932 9.3841693e-39 316 275
-0.0036714801 0.69800001 -0.042833932 9.4763649e-39 317 275
-0.0024476533 0.69800001 -0.042833932 8.9278617e-39 318 275
-0.0012238267 0.69800001 -0.042833932 9.2966428e-39 319 275
0 0.69999999 -0.042956665 9.3899076e-39 320 275
0.0012290865 0.70099998 -0.043018032 8.9289309e-39 321 275
0.0024651866 0.70300001 -0.043140765 8.8334983e-39 322 275
0.0037030398 0.704 -0.043202132 8.6491056e-39 323 275
0.0049514128 0.70599997 -0.043324865 8.3764788e-39 324 275
0.0061892662 0.70599997 -0.043324865 8.9296526e-39 325 275
0.0074271196 0.70599997 -0.043324865 8.8392576e-39 326 275
0.0086649731 0.70599997 -0.043324865 8.5626721e-39 327 275
0.0099168532 0.70700002 -0.043386232 8.8363849e-39 328 275
0.011156459 0.70700002 -0.043386232 8.7441879e-39 329 275
0.0124136 0.708 -0.043447599 8.5605239e-39 330 275
0.013654959 0.708 -0.043447599 8.6527195e-39 331 275
0.01489632 0.708 -0.043447599 9.1176606e-39 332 275
0.01613768 0.708 -0.043447599 1.0500595e-38 333 275
0.017428132 0.70999998 -0.043570329 1.2904161e-38 334 275
-0.038210396 0.70300001 -0.04437336 1.2157581e-38 289 276
-0.036977798 0.70300001 -0.04437336 1.2248329e-38 290 276
-0.035745207 0.70300001 -0.04437336 1.2248329e-38 291 276
-0.034414422 0.70099998 -0.044247117 1.2431995e-38 292 276
-0.03318534 0.70099998 -0.044247117 1.2524191e-38 293 276
-0.031910665 0.69999999 -0.044183996 1.2341231e-38 294 276
-0.030595668 0.69800001 -0.04405776 1.2617458e-38 295 276
-0.029371841 0.69800001 -0.04405776 1.2434862e-38 296 276
-0.028148014 0.69800001 -0.04405776 1.2527059e-38 297 276
-0.026924185 0.69800001 -0.04405776 1.2344816e-38 298 276
-0.025700359 0.69800001 -0.04405776 1.2344816e-38 299 276
-0.024476532 0.69800001 -0.04405776 1.2161854e-38 300 276
-0.023252707 0.69800001 -0.04405776 1.2069657e-38 301 276
-0.02202888 0.69800001 -0.04405776 1.1701953e-38 302 276
-0.020805053 0.69800001 -0.04405776 1.1794149e-38 303 276
-0.019581227 0.69800001 -0.04405776 1.1517203e-38 304 276
-0.0183574 0.69800001 -0.04405776 1.1517203e-38 305 276
-0.017109027 0.69700003 -0.043994639 1.1424288e-38 306 276
-0.015886955 0.69700003 -0.043994639 1.1239896e-38 307 276
-0.01466488 0.69700003 -0.043994639 1.1238108e-38 308 276
-0.013442807 0.69700003 -0.043994639 1.1053358e-38 309 276
-0.012220734 0.69700003 -0.043994639 1.1325998e-38 310 276
-0.01099866 0.69700003 -0.043994639 1.1049411e-38 311 276
-0.0097765867 0.69700003 -0.043994639 1.0953991e-38 312 276
-0.0085545136 0.69700003 -0.043994639 9.8476432e-39 313 276
-0.0073429602 0.69800001 -0.04405776 1.012029e-38 314 276
-0.006119133 0.69800001 -0.04405776 9.5671158e-39 315 276
-0.0048953067 0.69800001 -0.04405776 8.9239114e-39 316 276
-0.0036714801 0.69800001 -0.04405776 9.2008571e-39 317 276
-0.0024476533 0.69800001 -0.04405776 9.1118956e-39 318 276
-0.0012273333 0.69999999 -0.044183996 9.4810369e-39 319 276
0 0.70099998 -0.044247117 9.3909908e-39 320 276
0.0012325933 0.70300001 -0.04437336 9.1140438e-39 321 276
0.0024686933 0.704 -0.044436477 8.6509049e-39 322 276
0.0037030398 0.704 -0.044436477 8.4665136e-39 323 276
0.0049584266 0.70700002 -0.044625837 8.5619462e-39 324 276
0.0061980332 0.70700002 -0.044625837 8.9307287e-39 325 276
0.0074376399 0.70700002 -0.044625837 8.748141e-39 326 276
0.008677247 0.70700002 -0.044625837 8.4711953e-39 327 276
0.0099308798 0.708 -0.044688959 8.5605239e-39 328 276
0.01117224 0.708 -0.044688959 8.5605239e-39 329 276
-0.036977798 0.70300001 -0.04560595 1.178844e-38 290 277
-0.035745207 0.70300001 -0.04560595 1.1604408e-38 291 277
-0.034512613 0.70300001 -0.04560595 1.2154335e-38 292 277
-0.03318534 0.70099998 -0.045476202 1.2430923e-38 293 277
-0.031910665 0.69999999 -0.04541133 1.2339796e-38 294 277
-0.030595668 0.69800001 -0.045281585 1.2431992e-38 295 277
-0.029371841 0.69800001 -0.045281585 1.2249752e-38 296 277
-0.028148014 0.69800001 -0.045281585 1.2434143e-38 297 277
-0.026924185 0.69800001 -0.045281585 1.22519e-38 298 277
-0.025700359 0.69800001 -0.045281585 1.22519e-38 299 277
-0.024476532 0.69800001 -0.045281585 1.2159702e-38 300 277
-0.023252707 0.69800001 -0.045281585 1.2067506e-38 301 277
-0.02202888 0.69800001 -0.045281585 1.1791642e-38 302 277
-0.020805053 0.69800001 -0.045281585 1.1791642e-38 303 277
-0.019581227 0.69800001 -0.045281585 1.1699802e-38 304 277
-0.0183574 0.69800001 -0.045281585 1.1423216e-38 305 277
-0.017133573 0.69800001 -0.045281585 1.1696928e-38 306 277
-0.015909746 0.69800001 -0.045281585 1.1512537e-38 307 277
-0.01466488 0.69700003 -0.045216713 1.1418552e-38 308 277
-0.013442807 0.69700003 -0.045216713 1.1141606e-38 309 277
-0.012220734 0.69700003 -0.045216713 1.1138738e-38 310 277
-0.01101444 0.69800001 -0.045281585 1.0585564e-38 311 277
-0.0097906133 0.69800001 -0.045281585 1.0490867e-38 312 277
-0.0085667865 0.69800001 -0.045281585 9.8454978e-39 313 277
-0.0073429602 0.69800001 -0.045281585 9.5667655e-39 314 277
-0.006119133 0.69800001 -0.045281585 9.3820155e-39 315 277
-0.0049093333 0.69999999 -0.04541133 8.741318e-39 316 277
-0.0036819996 0.69999999 -0.04541133 9.1104607e-39 317 277
-0.0024546667 0.69999999 -0.04541133 8.8378297e-39 318 277
-0.0012290865 0.70099998 -0.045476202 9.3910034e-39 319 277
0 0.70099998 -0.045476202 9.3016777e-39 320 277
0.0012325933 0.70300001 -0.04560595 8.7485053e-39 321 277
0.0024686933 0.704 -0.045670826 8.8360178e-39 322 277
0.0037135598 0.70599997 -0.04580057 8.8360178e-39 323 277
0.0049584266 0.70700002 -0.045865446 8.657739e-39 324 277
-0.033137999 0.69999999 -0.046638668 1.1603329e-38 293 278
-0.031910665 0.69999999 -0.046638668 1.1972092e-38 294 278
-0.030595668 0.69800001 -0.046505414 1.1972092e-38 295 278
-0.029371841 0.69800001 -0.046505414 1.2064637e-38 296 278
-0.028228667 0.69999999 -0.046638668 1.2156835e-38 297 278
-0.027001332 0.69999999 -0.046638668 1.2249033e-38 298 278
-0.025773998 0.69999999 -0.046638668 1.2156837e-38 299 278
-0.024546666 0.69999999 -0.046638668 1.160583e-38 300 278
-0.023319334 0.69999999 -0.046638668 1.160583e-38 301 278
-0.022091998 0.69999999 -0.046638668 1.1422518e-38 302 278
-0.020864666 0.69999999 -0.046638668 1.1422518e-38 303 278
-0.019637333 0.69999999 -0.046638668 1.1513632e-38 304 278
-0.018409999 0.69999999 -0.046638668 1.1237405e-38 305 278
-0.017133573 0.69800001 -0.046505414 1.1511112e-38 306 278
-0.015909746 0.69800001 -0.046505414 1.1326719e-38 307 278
-0.01468592 0.69800001 -0.046505414 1.1323847e-38 308 278
-0.013462093 0.69800001 -0.046505414 1.0863227e-38 309 278
-0.012238266 0.69800001 -0.046505414 1.0584495e-38 310 278
-0.01101444 0.69800001 -0.046505414 1.0123157e-38 311 278
-0.0097906133 0.69800001 -0.046505414 9.9366214e-39 312 278
