# .PCD v.7 - Point Cloud Data file format
FIELDS x y z rgb imX imY
SIZE 4 4 4 4 4 4
TYPE F F F F F F
COUNT 1 1 1 1 1 1
WIDTH 847
HEIGHT 1
VIEWPOINT 0 0 0 1 0 0 0
POINTS 847
DATA ascii
-0.0037714199 0.71700001 -0.089256942 1.8396193e-38 317 311
-0.0025142799 0.71700001 -0.089256942 1.8028139e-38 318 311
-0.00125714 0.71700001 -0.089256942 1.7935942e-38 319 311
0 0.71700001 -0.089256942 1.7196952e-38 320 311
0.0012606466 0.71899998 -0.089505911 1.5906213e-38 321 311
0.0025248001 0.72000003 -0.089630403 1.5073228e-38 322 311
0.0037872 0.72000003 -0.089630403 1.6456163e-38 323 311
0.0050496003 0.72000003 -0.089630403 1.6926123e-38 324 311
0.0063120001 0.72000003 -0.089630403 1.7018679e-38 325 311
0.0075743999 0.72000003 -0.089630403 1.7935218e-38 326 311
0.0088245263 0.71899998 -0.089505911 1.7750826e-38 327 311
0.01005712 0.71700001 -0.089256942 1.7933776e-38 328 311
0.01131426 0.71700001 -0.089256942 1.8025971e-38 329 311
0.012553867 0.71600002 -0.089132458 1.7843022e-38 330 311
0.013809253 0.71600002 -0.089132458 1.7843022e-38 331 311
0.01506464 0.71600002 -0.089132458 1.7751192e-38 332 311
0.016320027 0.71600002 -0.089132458 1.7567161e-38 333 311
0.017575413 0.71600002 -0.089132458 1.7842319e-38 334 311
0.0188308 0.71600002 -0.089132458 1.7657927e-38 335 311
0.020086186 0.71600002 -0.089132458 1.7105855e-38 336 311
0.021281958 0.71399999 -0.088883474 1.8580625e-38 337 311
0.022533838 0.71399999 -0.088883474 1.675906e-38 338 311
-0.015022559 0.71399999 -0.090135351 1.8030698e-38 308 312
-0.01377068 0.71399999 -0.090135351 1.8306925e-38 309 312
-0.012501267 0.713 -0.090009116 1.8490209e-38 310 312
-0.011251139 0.713 -0.090009116 1.8305818e-38 311 312
-0.01001504 0.71399999 -0.090135351 1.8490209e-38 312 312
-0.0087877065 0.71600002 -0.090387844 1.931997e-38 313 312
-0.00753232 0.71600002 -0.090387844 1.9227777e-38 314 312
-0.0062769335 0.71600002 -0.090387844 1.9135581e-38 315 312
-0.0050215465 0.71600002 -0.090387844 1.9317073e-38 316 312
-0.00376616 0.71600002 -0.090387844 1.8764258e-38 317 312
-0.0025107733 0.71600002 -0.090387844 1.857914e-38 318 312
-0.00125188 0.71399999 -0.090135351 1.8486944e-38 319 312
0 0.71399999 -0.090135351 1.7843028e-38 320 312
0.0012553866 0.71600002 -0.090387844 1.6459734e-38 321 312
0.0025142799 0.71700001 -0.090514079 1.4796994e-38 322 312
0.0037819401 0.71899998 -0.090766557 1.4981383e-38 323 312
0.0050496003 0.72000003 -0.090892807 1.5634311e-38 324 312
0.0063120001 0.72000003 -0.090892807 1.7201638e-38 325 312
0.0075743999 0.72000003 -0.090892807 1.8120338e-38 326 312
0.0087999795 0.71700001 -0.090514079 1.7382414e-38 327 312
0.010043093 0.71600002 -0.090387844 1.7934123e-38 328 312
0.01129848 0.71600002 -0.090387844 1.8026319e-38 329 312
0.012518799 0.71399999 -0.090135351 1.7842293e-38 330 312
0.01377068 0.71399999 -0.090135351 1.7934489e-38 331 312
0.015022559 0.71399999 -0.090135351 1.7751545e-38 332 312
0.016274439 0.71399999 -0.090135351 1.7567514e-38 333 312
0.017526319 0.71399999 -0.090135351 1.7750476e-38 334 312
0.018778199 0.71399999 -0.090135351 1.765828e-38 335 312
0.020002026 0.713 -0.090009116 1.747318e-38 336 312
0.021252153 0.713 -0.090009116 1.747318e-38 337 312
0.022502279 0.713 -0.090009116 1.6748611e-38 338 312
-0.015022559 0.71399999 -0.091387235 1.8491303e-38 308 313
-0.01377068 0.71399999 -0.091387235 1.8306912e-38 309 313
-0.012501267 0.713 -0.091259241 1.8580975e-38 310 313
-0.011251139 0.713 -0.091259241 1.8396944e-38 311 313
-0.010001013 0.713 -0.091259241 1.8946511e-38 312 313
-0.0087631596 0.71399999 -0.091387235 1.9868827e-38 313 313
-0.0075112795 0.71399999 -0.091387235 1.9138433e-38 314 313
-0.0062506334 0.713 -0.091259241 1.9046237e-38 315 313
-0.0050005065 0.713 -0.091259241 1.9320278e-38 316 313
-0.0037556398 0.71399999 -0.091387235 1.8767464e-38 317 313
-0.0025002533 0.713 -0.091259241 1.8855341e-38 318 313
-0.0012501266 0.713 -0.091259241 1.8947537e-38 319 313
0 0.713 -0.091259241 1.8394747e-38 320 313
0.0012501266 0.713 -0.091259241 1.7473151e-38 321 313
0.0025002533 0.713 -0.091259241 1.5718595e-38 322 313
0.00376616 0.71600002 -0.091643229 1.4427859e-38 323 313
0.0050425865 0.71899998 -0.092027202 1.4702667e-38 324 313
0.0063032326 0.71899998 -0.092027202 1.7191948e-38 325 313
0.0075743999 0.72000003 -0.092155196 1.7844839e-38 326 313
0.0087999795 0.71700001 -0.091771215 1.7107274e-38 327 313
0.01001504 0.71399999 -0.091387235 1.802524e-38 328 313
0.011251139 0.713 -0.091259241 1.8117435e-38 329 313
0.0124662 0.71100003 -0.091003262 1.7934845e-38 330 313
0.01371282 0.71100003 -0.091003262 1.7934845e-38 331 313
0.015001519 0.713 -0.091259241 1.7841943e-38 332 313
0.01620606 0.71100003 -0.091003262 1.7657912e-38 333 313
0.01745268 0.71100003 -0.091003262 1.765828e-38 334 313
0.0186993 0.71100003 -0.091003262 1.7750476e-38 335 313
0.01994592 0.71100003 -0.091003262 1.7841593e-38 336 313
0.021192541 0.71100003 -0.091003262 1.747281e-38 337 313
0.022439159 0.71100003 -0.091003262 1.6555568e-38 338 313
-0.015001519 0.713 -0.092509374 1.8673168e-38 308 314
-0.01371282 0.71100003 -0.092249878 1.8120353e-38 309 314
-0.0124662 0.71100003 -0.092249878 1.8485537e-38 310 314
-0.011251139 0.713 -0.092509374 1.8301144e-38 311 314
-0.010001013 0.713 -0.092509374 1.8301872e-38 312 314
-0.0087508867 0.713 -0.092509374 1.9869196e-38 313 314
-0.0075007593 0.713 -0.092509374 1.9137379e-38 314 314
-0.0062506334 0.713 -0.092509374 1.8768238e-38 315 314
-0.0050005065 0.713 -0.092509374 1.9318878e-38 316 314
-0.0037503797 0.713 -0.092509374 1.9318878e-38 317 314
-0.0024932399 0.71100003 -0.092249878 1.9131596e-38 318 314
-0.00124662 0.71100003 -0.092249878 1.885465e-38 319 314
0 0.71100003 -0.092249878 1.8670262e-38 320 314
0.0012448666 0.70999998 -0.092120126 1.8301479e-38 321 314
0.0024897333 0.70999998 -0.092120126 1.7378819e-38 322 314
0.0037503797 0.713 -0.092509374 1.4521129e-38 323 314
0.0050005065 0.713 -0.092509374 1.3410135e-38 324 314
0.0063032326 0.71899998 -0.093287848 1.5991589e-38 325 314
0.0075743999 0.72000003 -0.0934176 1.6737065e-38 326 314
0.0087263398 0.71100003 -0.092249878 1.7659022e-38 327 314
0.0099729598 0.71100003 -0.092249878 1.8025971e-38 328 314
0.01121958 0.71100003 -0.092249878 1.784158e-38 329 314
0.012448666 0.70999998 -0.092120126 1.8026675e-38 330 314
0.013693533 0.70999998 -0.092120126 1.7934479e-38 331 314
0.014959441 0.71100003 -0.092249878 1.7933773e-38 332 314
0.016183265 0.70999998 -0.092120126 1.7933773e-38 333 314
0.017428132 0.70999998 -0.092120126 1.7934495e-38 334 314
0.0186993 0.71100003 -0.092249878 1.7934495e-38 335 314
0.019917866 0.70999998 -0.092120126 1.7751182e-38 336 314
0.021162732 0.70999998 -0.092120126 1.7751182e-38 337 314
0.022407599 0.70999998 -0.092120126 1.7659728e-38 338 314
0.023652466 0.70999998 -0.092120126 1.7106556e-38 339 314
0.024897331 0.70999998 -0.092120126 1.6664344e-38 340 314
-0.01620606 0.71100003 -0.093496501 1.8029246e-38 307 315
-0.015001519 0.713 -0.093759492 1.8301144e-38 308 315
-0.01371282 0.71100003 -0.093496501 1.8024918e-38 309 315
-0.0124662 0.71100003 -0.093496501 1.7657208e-38 310 315
-0.011251139 0.713 -0.093759492 1.7657208e-38 311 315
-0.010001013 0.713 -0.093759492 1.7657574e-38 312 315
-0.0087508867 0.713 -0.093759492 1.8302944e-38 313 315
-0.0075007593 0.713 -0.093759492 1.8213992e-38 314 315
-0.0062506334 0.713 -0.093759492 1.8029599e-38 315 315
-0.0050005065 0.713 -0.093759492 1.8487338e-38 316 315
-0.0037398601 0.71100003 -0.093496501 1.885612e-38 317 315
-0.0024932399 0.71100003 -0.093496501 1.8947217e-38 318 315
-0.00124662 0.71100003 -0.093496501 1.8763186e-38 319 315
0 0.70999998 -0.093364999 1.8762457e-38 320 315
0.00124136 0.708 -0.093101993 1.8762457e-38 321 315
0.00248272 0.708 -0.093101993 1.8117817e-38 322 315
0.0037188199 0.70700002 -0.092970498 1.6089513e-38 323 315
0.0049514128 0.70599997 -0.092838995 1.3873258e-38 324 315
0.0061892662 0.70599997 -0.092838995 1.4426424e-38 325 315
0.0074271196 0.70599997 -0.092838995 1.4986795e-38 326 315
0.008689519 0.708 -0.093101993 1.7107293e-38 327 315
0.0099589331 0.70999998 -0.093364999 1.7935588e-38 328 315
0.011203799 0.70999998 -0.093364999 1.7474968e-38 329 315
0.012448666 0.70999998 -0.093364999 1.7934123e-38 330 315
0.013693533 0.70999998 -0.093364999 1.7841928e-38 331 315
0.014938398 0.70999998 -0.093364999 1.784158e-38 332 315
0.016183265 0.70999998 -0.093364999 1.8118167e-38 333 315
0.017428132 0.70999998 -0.093364999 1.8028487e-38 334 315
0.0186204 0.708 -0.093101993 1.8213237e-38 335 315
0.01986176 0.708 -0.093101993 1.8214306e-38 336 315
0.021103119 0.708 -0.093101993 1.812211e-38 337 315
0.022312919 0.70700002 -0.092970498 1.8029206e-38 338 315
0.023552528 0.70700002 -0.092970498 1.747639e-38 339 315
0.024792133 0.70700002 -0.092970498 1.7112707e-38 340 315
0.02603174 0.70700002 -0.092970498 1.9141011e-38 341 315
-0.017428132 0.70999998 -0.094609864 1.8025987e-38 306 316
-0.016183265 0.70999998 -0.094609864 1.7841595e-38 307 316
-0.014959441 0.71100003 -0.094743125 1.7470293e-38 308 316
-0.013751393 0.713 -0.095009625 1.7285901e-38 309 316
-0.012501267 0.713 -0.095009625 1.6734176e-38 310 316
-0.011251139 0.713 -0.095009625 1.6826372e-38 311 316
-0.010001013 0.713 -0.095009625 1.682674e-38 312 316
-0.0087631596 0.71399999 -0.095142879 1.6918937e-38 313 316
-0.0075007593 0.713 -0.095009625 1.6921454e-38 314 316
-0.0062506334 0.713 -0.095009625 1.7106205e-38 315 316
-0.0050005065 0.713 -0.095009625 1.7656152e-38 316 316
-0.0037398601 0.71100003 -0.094743125 1.8024933e-38 317 316
-0.0024932399 0.71100003 -0.094743125 1.8485189e-38 318 316
-0.0012448666 0.70999998 -0.094609864 1.9222754e-38 319 316
0 0.70999998 -0.094609864 1.8671353e-38 320 316
0.00124136 0.708 -0.094343357 1.8579158e-38 321 316
0.0024792133 0.70700002 -0.094210111 1.8671704e-38 322 316
0.0037135598 0.70599997 -0.09407685 1.7380965e-38 323 316
0.0049514128 0.70599997 -0.09407685 1.4888471e-38 324 316
0.0061892662 0.70599997 -0.09407685 1.3413363e-38 325 316
0.0074271196 0.70599997 -0.09407685 1.3600989e-38 326 316
0.008677247 0.70700002 -0.094210111 1.673564e-38 327 316
0.0099168532 0.70700002 -0.094210111 1.7567542e-38 328 316
0.01117224 0.708 -0.094343357 1.7383511e-38 329 316
0.0124136 0.708 -0.094343357 1.7934495e-38 330 316
0.013654959 0.708 -0.094343357 1.7934495e-38 331 316
0.01489632 0.708 -0.094343357 1.7934141e-38 332 316
0.01613768 0.708 -0.094343357 1.839548e-38 333 316
0.017354494 0.70700002 -0.094210111 1.8216121e-38 334 316
0.018594101 0.70700002 -0.094210111 1.8677097e-38 335 316
0.019833706 0.70700002 -0.094210111 1.8586686e-38 336 316
0.021073313 0.70700002 -0.094210111 1.8033512e-38 337 316
0.022281358 0.70599997 -0.09407685 1.812211e-38 338 316
0.023519212 0.70599997 -0.09407685 1.812211e-38 339 316
0.024757065 0.70599997 -0.09407685 1.7935959e-38 340 316
0.02592128 0.704 -0.093810342 1.812035e-38 341 316
0.027039904 0.70099998 -0.093410581 1.7123169e-38 342 316
0.028268991 0.70099998 -0.093410581 1.8783051e-38 343 316
-0.018672999 0.70999998 -0.095854729 1.7477149e-38 305 317
-0.017428132 0.70999998 -0.095854729 1.7563211e-38 306 317
-0.016183265 0.70999998 -0.095854729 1.7194788e-38 307 317
-0.014959441 0.71100003 -0.095989741 1.6916769e-38 308 317
-0.013751393 0.713 -0.09625975 1.6640181e-38 309 317
-0.012501267 0.713 -0.09625975 1.6455086e-38 310 317
-0.011251139 0.713 -0.09625975 1.6639479e-38 311 317
-0.010001013 0.713 -0.09625975 1.5815116e-38 312 317
-0.0087631596 0.71399999 -0.096394755 1.5815116e-38 313 317
-0.0075007593 0.713 -0.09625975 1.6183536e-38 314 317
-0.0062506334 0.713 -0.09625975 1.6368286e-38 315 317
-0.0050005065 0.713 -0.09625975 1.6828911e-38 316 317
-0.0037398601 0.71100003 -0.095989741 1.728953e-38 317 317
-0.0024932399 0.71100003 -0.095989741 1.7934537e-38 318 317
-0.0012448666 0.70999998 -0.095854729 1.8487709e-38 319 317
0 0.708 -0.095584713 1.8761751e-38 320 317
0.0012396066 0.70700002 -0.095449716 1.8946501e-38 321 317
0.0024757064 0.70599997 -0.095314704 1.8579861e-38 322 317
0.0037135598 0.70599997 -0.095314704 1.8211437e-38 323 317
0.0049373866 0.704 -0.095044687 1.7100791e-38 324 317
0.0061717331 0.704 -0.095044687 1.4334588e-38 325 317
0.0074060797 0.704 -0.095044687 1.3410494e-38 326 317
0.0086649731 0.70599997 -0.095314704 1.6453295e-38 327 317
0.0099028256 0.70599997 -0.095314704 1.673923e-38 328 317
0.011156459 0.70700002 -0.095449716 1.7661187e-38 329 317
0.012396066 0.70700002 -0.095449716 1.8210735e-38 330 317
0.013654959 0.708 -0.095584713 1.7841593e-38 331 317
0.01489632 0.708 -0.095584713 1.8025268e-38 332 317
0.016114887 0.70700002 -0.095449716 1.8578442e-38 333 317
0.017329946 0.70599997 -0.095314704 1.8863654e-38 334 317
0.018567799 0.70599997 -0.095314704 1.8771458e-38 335 317
0.019805651 0.70599997 -0.095314704 1.8679244e-38 336 317
0.021043506 0.70599997 -0.095314704 1.8218625e-38 337 317
0.022281358 0.70599997 -0.095314704 1.8307223e-38 338 317
0.023519212 0.70599997 -0.095314704 1.8307223e-38 339 317
0.024686933 0.704 -0.095044687 1.8029934e-38 340 317
0.02592128 0.704 -0.095044687 1.7937739e-38 341 317
0.027039904 0.70099998 -0.094639666 1.7572241e-38 342 317
0.028268991 0.70099998 -0.094639666 1.9139206e-38 343 317
0.029455997 0.69999999 -0.094504662 1.7497362e-38 344 317
0.030683333 0.69999999 -0.094504662 1.860407e-38 345 317
-0.018594101 0.70700002 -0.096689314 1.7289883e-38 305 318
-0.017354494 0.70700002 -0.096689314 1.7010052e-38 306 318
-0.01620606 0.71100003 -0.097236358 1.664163e-38 307 318
-0.014959441 0.71100003 -0.097236358 1.6273217e-38 308 318
-0.013751393 0.713 -0.097509876 1.6088825e-38 309 318
-0.012501267 0.713 -0.097509876 1.5537822e-38 310 318
-0.011266919 0.71399999 -0.097646631 1.5630017e-38 311 318
-0.01001504 0.71399999 -0.097646631 1.4805291e-38 312 318
-0.0087631596 0.71399999 -0.097646631 1.4897488e-38 313 318
-0.0075112795 0.71399999 -0.097646631 1.4898918e-38 314 318
-0.0062593995 0.71399999 -0.097646631 1.5175145e-38 315 318
-0.0050005065 0.713 -0.097509876 1.5726881e-38 316 318
-0.0037398601 0.71100003 -0.097236358 1.6187857e-38 317 318
-0.0024897333 0.70999998 -0.097099595 1.7382435e-38 318 318
-0.0012448666 0.70999998 -0.097099595 1.7659022e-38 319 318
0 0.708 -0.096826077 1.858024e-38 320 318
0.0012396066 0.70700002 -0.096689314 1.8764272e-38 321 318
0.0024757064 0.70599997 -0.096552551 1.8670615e-38 322 318
0.0037030398 0.704 -0.096279033 1.8486224e-38 323 318
0.0049373866 0.704 -0.096279033 1.8302551e-38 324 318
0.0061717331 0.704 -0.096279033 1.5352671e-38 325 318
0.0074060797 0.704 -0.096279033 1.3499818e-38 326 318
0.0086404262 0.704 -0.096279033 1.5896174e-38 327 318
0.0098747732 0.704 -0.096279033 1.5539633e-38 328 318
0.011140679 0.70599997 -0.096552551 1.7567937e-38 329 318
0.012378532 0.70599997 -0.096552551 1.8119984e-38 330 318
0.013635674 0.70700002 -0.096689314 1.7566811e-38 331 318
0.01487528 0.70700002 -0.096689314 1.8025271e-38 332 318
0.016092092 0.70599997 -0.096552551 1.848589e-38 333 318
0.017329946 0.70599997 -0.096552551 1.858457e-38 334 318
0.018567799 0.70599997 -0.096552551 1.876932e-38 335 318
0.019805651 0.70599997 -0.096552551 1.8585273e-38 336 318
0.021043506 0.70599997 -0.096552551 1.8308685e-38 337 318
0.022281358 0.70599997 -0.096552551 1.8491263e-38 338 318
0.023452586 0.704 -0.096279033 1.8491263e-38 339 318
0.024686933 0.704 -0.096279033 1.8491265e-38 340 318
0.02592128 0.704 -0.096279033 1.8491265e-38 341 318
0.027117053 0.70300001 -0.096142277 1.8396938e-38 342 318
0.028268991 0.70099998 -0.095868751 1.8304741e-38 343 318
0.029455997 0.69999999 -0.095731996 1.7577292e-38 344 318
0.030683333 0.69999999 -0.095731996 1.9237172e-38 345 318
0.031910665 0.69999999 -0.095731996 1.7778269e-38 346 318
0.033137999 0.69999999 -0.095731996 1.879242e-38 347 318
0.034267146 0.69800001 -0.095458478 1.6957156e-38 348 318
-0.022218239 0.704 -0.097513385 1.7850988e-38 302 319
-0.020983893 0.704 -0.097513385 1.6468054e-38 303 319
-0.019749546 0.704 -0.097513385 1.7378842e-38 304 319
-0.018594101 0.70700002 -0.097928926 1.6825668e-38 305 319
-0.017354494 0.70700002 -0.097928926 1.609099e-38 306 319
-0.01620606 0.71100003 -0.098482981 1.5814763e-38 307 319
-0.015001519 0.713 -0.098760001 1.5995926e-38 308 319
-0.013751393 0.713 -0.098760001 1.5442752e-38 309 319
-0.012553867 0.71600002 -0.09917555 1.4158497e-38 310 319
-0.0062593995 0.71399999 -0.098898515 1.3335573e-38 315 319
-0.0050005065 0.713 -0.098760001 1.4530874e-38 316 319
-0.0037398601 0.71100003 -0.098482981 1.499185e-38 317 319
-0.0024897333 0.70999998 -0.09834446 1.6644517e-38 318 319
-0.00124136 0.708 -0.098067433 1.7105855e-38 319 319
0 0.70700002 -0.097928926 1.8397648e-38 320 319
0.0012378532 0.70599997 -0.097790405 1.8120701e-38 321 319
0.0024686933 0.704 -0.097513385 1.8486229e-38 322 319
0.0036977797 0.70300001 -0.097374871 1.8670262e-38 323 319
0.0049303733 0.70300001 -0.097374871 1.8580943e-38 324 319
0.0061629666 0.70300001 -0.097374871 1.6828866e-38 325 319
0.0074060797 0.704 -0.097513385 1.4151635e-38 326 319
0.0086404262 0.704 -0.097513385 1.4889189e-38 327 319
0.0098747732 0.704 -0.097513385 1.4247796e-38 328 319
0.011109119 0.704 -0.097513385 1.7106221e-38 329 319
0.012343466 0.704 -0.097513385 1.7749775e-38 330 319
0.013577812 0.704 -0.097513385 1.7657221e-38 331 319
0.014854239 0.70599997 -0.097790405 1.8117466e-38 332 319
0.016046507 0.704 -0.097513385 1.8117466e-38 333 319
0.017280852 0.704 -0.097513385 1.8395139e-38 334 319
0.018515198 0.704 -0.097513385 1.8763922e-38 335 319
0.019749546 0.704 -0.097513385 1.8580604e-38 336 319
0.021043506 0.70599997 -0.097790405 1.8580604e-38 337 319
0.022281358 0.70599997 -0.097790405 1.8673871e-38 338 319
0.023452586 0.704 -0.097513385 1.8766426e-38 339 319
0.024686933 0.704 -0.097513385 1.8675309e-38 340 319
0.02592128 0.704 -0.097513385 1.8675309e-38 341 319
0.027117053 0.70300001 -0.097374871 1.858276e-38 342 319
0.028268991 0.70099998 -0.097097836 1.858276e-38 343 319
0.029498078 0.70099998 -0.097097836 1.8490227e-38 344 319
0.030727165 0.70099998 -0.097097836 1.9319988e-38 345 319
0.031910665 0.69999999 -0.09695933 1.7948248e-38 346 319
0.033137999 0.69999999 -0.09695933 1.9699965e-38 347 319
0.034267146 0.69800001 -0.09668231 1.7228701e-38 348 319
0.035490975 0.69800001 -0.09668231 1.7413451e-38 349 319
-0.023519212 0.70599997 -0.09902826 1.4730026e-38 301 320
-0.022218239 0.704 -0.09874773 1.7753012e-38 302 320
-0.020983893 0.704 -0.09874773 1.6831058e-38 303 320
-0.019749546 0.704 -0.09874773 1.6826394e-38 304 320
-0.018594101 0.70700002 -0.099168532 1.6549447e-38 305 320
-0.017379038 0.708 -0.099308796 1.5356321e-38 306 320
-0.016251646 0.713 -0.10001013 1.5264126e-38 307 320
-0.015001519 0.713 -0.10001013 1.4162467e-38 308 320
-0.01377068 0.71399999 -0.10015039 1.3977715e-38 309 320
-0.0062593995 0.71399999 -0.10015039 1.2506928e-38 315 320
-0.0050075199 0.71399999 -0.10015039 1.3060453e-38 316 320
-0.0037398601 0.71100003 -0.099729598 1.3521432e-38 317 320
-0.0024897333 0.70999998 -0.099589325 1.5542855e-38 318 320
-0.0012396066 0.70700002 -0.099168532 1.5819801e-38 319 320
0 0.70599997 -0.09902826 1.8211454e-38 320 320
0.0012343467 0.704 -0.09874773 1.8580237e-38 321 320
0.0024686933 0.704 -0.09874773 1.8669895e-38 322 320
0.0036977797 0.70300001 -0.098607466 1.857734e-38 323 320
0.0049303733 0.70300001 -0.098607466 1.8485501e-38 324 320
0.0061629666 0.70300001 -0.098607466 1.7932327e-38 325 320
0.0073955595 0.70300001 -0.098607466 1.5814763e-38 326 320
0.0086281532 0.70300001 -0.098607466 1.2495726e-38 327 320
0.0098607466 0.70300001 -0.098607466 1.3137162e-38 328 320
0.01109334 0.70300001 -0.098607466 1.7193409e-38 329 320
0.012325933 0.70300001 -0.098607466 1.7567545e-38 330 320
0.013577812 0.704 -0.09874773 1.7567545e-38 331 320
0.014812159 0.704 -0.09874773 1.8024915e-38 332 320
0.016023712 0.70300001 -0.098607466 1.811711e-38 333 320
0.017256306 0.70300001 -0.098607466 1.7934537e-38 334 320
0.018515198 0.704 -0.09874773 1.8118928e-38 335 320
0.019749546 0.704 -0.09874773 1.8118928e-38 336 320
0.020983893 0.704 -0.09874773 1.8395155e-38 337 320
0.022218239 0.704 -0.09874773 1.8214348e-38 338 320
0.023452586 0.704 -0.09874773 1.8490575e-38 339 320
0.024686933 0.704 -0.09874773 1.8490575e-38 340 320
0.02592128 0.704 -0.09874773 1.8214348e-38 341 320
0.027117053 0.70300001 -0.098607466 1.8580975e-38 342 320
0.028349647 0.70300001 -0.098607466 1.8580975e-38 343 320
0.029498078 0.70099998 -0.098326929 1.8672802e-38 344 320
0.030727165 0.70099998 -0.098326929 1.8580607e-38 345 320
0.031910665 0.69999999 -0.098186664 1.7664064e-38 346 320
0.033137999 0.69999999 -0.098186664 1.9139194e-38 347 320
0.034267146 0.69800001 -0.097906128 1.7955088e-38 348 320
0.035490975 0.69800001 -0.097906128 1.9061075e-38 349 320
-0.023519212 0.70599997 -0.10026611 1.5644057e-38 301 321
-0.022281358 0.70599997 -0.10026611 1.7749775e-38 302 321
-0.021043506 0.70599997 -0.10026611 1.682746e-38 303 321
-0.019805651 0.70599997 -0.10026611 1.6183191e-38 304 321
-0.018672999 0.70999998 -0.10083419 1.6090637e-38 305 321
-0.01745268 0.71100003 -0.10097622 1.4713838e-38 306 321
-0.0037398601 0.71100003 -0.10097622 1.1955176e-38 317 321
-0.0024897333 0.70999998 -0.10083419 1.4072027e-38 318 321
-0.0012396066 0.70700002 -0.10040814 1.5178016e-38 319 321
0 0.704 -0.099982075 1.8119608e-38 320 321
0.0012343467 0.704 -0.099982075 1.8396196e-38 321 321
0.0024651866 0.70300001 -0.09984006 1.8669541e-38 322 321
0.0036872597 0.70099998 -0.099556014 1.8669541e-38 323 321
0.0049163462 0.70099998 -0.099556014 1.8300407e-38 324 321
0.0061454331 0.70099998 -0.099556014 1.8484797e-38 325 321
0.0073955595 0.70300001 -0.09984006 1.7103697e-38 326 321
0.0086281532 0.70300001 -0.09984006 1.2862709e-38 327 321
0.0098326923 0.70099998 -0.099556014 1.2586134e-38 328 321
0.011061779 0.70099998 -0.099556014 1.6089567e-38 329 321
0.012325933 0.70300001 -0.09984006 1.7106568e-38 330 321
0.013558527 0.70300001 -0.09984006 1.7659742e-38 331 321
0.014791119 0.70300001 -0.09984006 1.8025268e-38 332 321
0.015978126 0.70099998 -0.099556014 1.7933072e-38 333 321
0.017207211 0.70099998 -0.099556014 1.7840168e-38 334 321
0.018488899 0.70300001 -0.09984006 1.7932722e-38 335 321
0.019721493 0.70300001 -0.09984006 1.8024562e-38 336 321
0.020954086 0.70300001 -0.09984006 1.8301147e-38 337 321
0.02218668 0.70300001 -0.09984006 1.8488407e-38 338 321
0.023419274 0.70300001 -0.09984006 1.8580604e-38 339 321
0.024651866 0.70300001 -0.09984006 1.8488763e-38 340 321
0.025884461 0.70300001 -0.09984006 1.8027786e-38 341 321
0.027117053 0.70300001 -0.09984006 1.8392271e-38 342 321
0.028349647 0.70300001 -0.09984006 1.8300075e-38 343 321
0.029498078 0.70099998 -0.099556014 1.8392638e-38 344 321
0.030727165 0.70099998 -0.099556014 1.894581e-38 345 321
0.031910665 0.69999999 -0.099413998 1.8489503e-38 346 321
0.033137999 0.69999999 -0.099413998 1.8858284e-38 347 321
0.034267146 0.69800001 -0.09912996 1.8217257e-38 348 321
0.035490975 0.69800001 -0.09912996 1.9231409e-38 349 321
0.0367148 0.69800001 -0.09912996 1.7402646e-38 350 321
-0.023552528 0.70700002 -0.10164775 1.6465889e-38 301 322
-0.022312919 0.70700002 -0.10164775 1.7289167e-38 302 322
-0.021073313 0.70700002 -0.10164775 1.6643798e-38 303 322
-0.01986176 0.708 -0.10179152 1.5358119e-38 304 322
-0.0186993 0.71100003 -0.10222284 1.5358119e-38 305 322
-0.0037398601 0.71100003 -0.10222284 1.1685422e-38 317 322
-0.00248272 0.708 -0.10179152 1.3981626e-38 318 322
-0.0012378532 0.70599997 -0.10150397 1.4811388e-38 319 322
0 0.704 -0.10121643 1.8029208e-38 320 322
0.0012325933 0.70300001 -0.10107265 1.8121404e-38 321 322
0.0024581731 0.70099998 -0.1007851 1.8486944e-38 322 322
0.0036819996 0.69999999 -0.10064133 1.8302551e-38 323 322
0.0049093333 0.69999999 -0.10064133 1.8484791e-38 324 322
0.0061366665 0.69999999 -0.10064133 1.8669541e-38 325 322
0.0073639993 0.69999999 -0.10064133 1.7751219e-38 326 322
0.0085913334 0.69999999 -0.10064133 1.369461e-38 327 322
0.0098186666 0.69999999 -0.10064133 1.2315655e-38 328 322
0.011045999 0.69999999 -0.10064133 1.4897133e-38 329 322
0.012273333 0.69999999 -0.10064133 1.6738142e-38 330 322
0.013519952 0.70099998 -0.1007851 1.7567542e-38 331 322
0.014727999 0.69999999 -0.10064133 1.7933435e-38 332 322
0.015955333 0.69999999 -0.10064133 1.7565013e-38 333 322
0.017182667 0.69999999 -0.10064133 1.7655422e-38 334 322
0.018409999 0.69999999 -0.10064133 1.7747619e-38 335 322
0.019665385 0.70099998 -0.1007851 1.7565025e-38 336 322
0.020894472 0.70099998 -0.1007851 1.7841971e-38 337 322
0.022123558 0.70099998 -0.1007851 1.7935959e-38 338 322
0.023419274 0.70300001 -0.10107265 1.8212546e-38 339 322
0.024651866 0.70300001 -0.10107265 1.8028152e-38 340 322
0.025884461 0.70300001 -0.10107265 1.7382782e-38 341 322
0.027039904 0.70099998 -0.1007851 1.7839464e-38 342 322
0.028268991 0.70099998 -0.1007851 1.7932018e-38 343 322
0.029498078 0.70099998 -0.1007851 1.7840912e-38 344 322
0.030727165 0.70099998 -0.1007851 1.830189e-38 345 322
0.031910665 0.69999999 -0.10064133 1.8212195e-38 346 322
0.033137999 0.69999999 -0.10064133 1.8580619e-38 347 322
0.034267146 0.69800001 -0.10035378 1.8028883e-38 348 322
0.035490975 0.69800001 -0.10035378 1.8582057e-38 349 322
0.0367148 0.69800001 -0.10035378 1.8035396e-38 350 322
0.037938625 0.69800001 -0.10035378 1.8957712e-38 351 322
0.039162453 0.69800001 -0.10035378 1.7682477e-38 352 322
-0.024792133 0.70700002 -0.10288735 1.7846301e-38 300 323
-0.023552528 0.70700002 -0.10288735 1.6278974e-38 301 323
-0.022312919 0.70700002 -0.10288735 1.6553413e-38 302 323
-0.021103119 0.708 -0.10303288 1.6461217e-38 303 323
-0.019917866 0.70999998 -0.10332392 1.4534842e-38 304 323
-0.00248272 0.708 -0.10303288 1.4536612e-38 318 323
-0.0012378532 0.70599997 -0.10274182 1.4721362e-38 319 323
0 0.70300001 -0.10230524 1.7845546e-38 320 323
0.0012273333 0.69999999 -0.10186866 1.7752991e-38 321 323
0.0024476533 0.69800001 -0.10157761 1.8394394e-38 322 323
0.0036609597 0.69599998 -0.10128655 1.8394394e-38 323 323
0.0048812795 0.69599998 -0.10128655 1.8301845e-38 324 323
0.0061103669 0.69700003 -0.10143209 1.8578792e-38 325 323
0.0073219193 0.69599998 -0.10128655 1.8029602e-38 326 323
0.0085422397 0.69599998 -0.10128655 1.4525809e-38 327 323
0.0097765867 0.69700003 -0.10143209 1.2135212e-38 328 323
0.01099866 0.69700003 -0.10143209 1.4348268e-38 329 323
0.012220734 0.69700003 -0.10143209 1.6739584e-38 330 323
0.013500666 0.69999999 -0.10186866 1.7384953e-38 331 323
0.01468592 0.69800001 -0.10157761 1.7841242e-38 332 323
0.015909746 0.69800001 -0.10157761 1.747246e-38 333 323
0.017133573 0.69800001 -0.10157761 1.7380264e-38 334 323
0.0183574 0.69800001 -0.10157761 1.747246e-38 335 323
0.019637333 0.69999999 -0.10186866 1.728915e-38 336 323
0.020894472 0.70099998 -0.10201418 1.7473183e-38 337 323
0.022123558 0.70099998 -0.10201418 1.7657224e-38 338 323
0.023352645 0.70099998 -0.10201418 1.7841615e-38 339 323
0.024651866 0.70300001 -0.10230524 1.7566829e-38 340 323
0.025884461 0.70300001 -0.10230524 1.7289883e-38 341 323
0.027039904 0.70099998 -0.10201418 1.738136e-38 342 323
0.028268991 0.70099998 -0.10201418 1.738136e-38 343 323
0.029498078 0.70099998 -0.10201418 1.756611e-38 344 323
0.030727165 0.70099998 -0.10201418 1.7934534e-38 345 323
0.031910665 0.69999999 -0.10186866 1.8026729e-38 346 323
0.033137999 0.69999999 -0.10186866 1.8211479e-38 347 323
0.034267146 0.69800001 -0.10157761 1.79367e-38 348 323
0.035490975 0.69800001 -0.10157761 1.8305843e-38 349 323
0.0367148 0.69800001 -0.10157761 1.8491306e-38 350 323
0.037938625 0.69800001 -0.10157761 1.8122165e-38 351 323
0.039162453 0.69800001 -0.10157761 1.7301061e-38 352 323
0.040386278 0.69800001 -0.10157761 1.9421201e-38 353 323
-0.024792133 0.70700002 -0.10412696 1.7661192e-38 300 324
-0.023552528 0.70700002 -0.10412696 1.6278258e-38 301 324
-0.022344479 0.708 -0.10427424 1.5912012e-38 302 324
-0.0012378532 0.70599997 -0.10397967 1.5733367e-38 319 324
0 0.70300001 -0.10353784 1.7752994e-38 320 324
0.0012168133 0.69400001 -0.10221232 1.7752994e-38 321 324
0.0024336267 0.69400001 -0.10221232 1.8211435e-38 322 324
0.0036504399 0.69400001 -0.10221232 1.8211435e-38 323 324
0.0048672534 0.69400001 -0.10221232 1.8394394e-38 324 324
0.0060840664 0.69400001 -0.10221232 1.8394394e-38 325 324
0.0073008798 0.69400001 -0.10221232 1.775481e-38 326 324
0.0085176928 0.69400001 -0.10221232 1.5357725e-38 327 324
0.0097345067 0.69400001 -0.10221232 1.2874577e-38 328 324
0.01095132 0.69400001 -0.10221232 1.4441901e-38 329 324
0.0122032 0.69599998 -0.10250687 1.6923975e-38 330 324
0.013442807 0.69700003 -0.10265417 1.7384953e-38 331 324
0.01466488 0.69700003 -0.10265417 1.7657208e-38 332 324
0.015886955 0.69700003 -0.10265417 1.719587e-38 333 324
0.017109027 0.69700003 -0.10265417 1.7196223e-38 334 324
0.0183574 0.69800001 -0.10280143 1.7012192e-38 335 324
0.019581227 0.69800001 -0.10280143 1.7195154e-38 336 324
0.020864666 0.69999999 -0.10309599 1.7195154e-38 337 324
0.022123558 0.70099998 -0.10324328 1.7102255e-38 338 324
0.023352645 0.70099998 -0.10324328 1.7194451e-38 339 324
0.024651866 0.70300001 -0.10353784 1.6828186e-38 340 324
0.025884461 0.70300001 -0.10353784 1.6828186e-38 341 324
0.027117053 0.70300001 -0.10353784 1.6921457e-38 342 324
0.028349647 0.70300001 -0.10353784 1.6921457e-38 343 324
0.029498078 0.70099998 -0.10324328 1.6921104e-38 344 324
0.030727165 0.70099998 -0.10324328 1.7105855e-38 345 324
0.031910665 0.69999999 -0.10309599 1.7198769e-38 346 324
0.033137999 0.69999999 -0.10309599 1.7383161e-38 347 324
0.034267146 0.69800001 -0.10280143 1.7658671e-38 348 324
0.035490975 0.69800001 -0.10280143 1.811965e-38 349 324
0.0367148 0.69800001 -0.10280143 1.8122152e-38 350 324
0.037938625 0.69800001 -0.10280143 1.7937401e-38 351 324
0.039162453 0.69800001 -0.10280143 1.8121446e-38 352 324
0.040386278 0.69800001 -0.10280143 1.8766815e-38 353 324
-0.023552528 0.70700002 -0.10536657 1.6278624e-38 301 325
0 0.69300002 -0.1032801 1.8118905e-38 320 325
0.00121506 0.69300002 -0.1032801 1.7934514e-38 321 325
0.00243012 0.69300002 -0.1032801 1.8302554e-38 322 325
0.0036451798 0.69300002 -0.1032801 1.8302554e-38 323 325
0.00486024 0.69300002 -0.1032801 1.8301835e-38 324 325
0.0060753003 0.69300002 -0.1032801 1.8301835e-38 325 325
0.0072903596 0.69300002 -0.1032801 1.7934169e-38 326 325
0.0085054198 0.69300002 -0.1032801 1.6827463e-38 327 325
0.0097204801 0.69300002 -0.1032801 1.3520668e-38 328 325
0.01095132 0.69400001 -0.10342913 1.4811407e-38 329 325
0.012168133 0.69400001 -0.10342913 1.7106921e-38 330 325
0.013442807 0.69700003 -0.10387623 1.7106921e-38 331 325
0.01466488 0.69700003 -0.10387623 1.7380615e-38 332 325
0.015886955 0.69700003 -0.10387623 1.7288419e-38 333 325
0.017109027 0.69700003 -0.10387623 1.7011112e-38 334 325
0.0183574 0.69800001 -0.10402527 1.6827081e-38 335 325
0.019581227 0.69800001 -0.10402527 1.6826377e-38 336 325
0.020864666 0.69999999 -0.10432333 1.6826377e-38 337 325
0.022091998 0.69999999 -0.10432333 1.6643781e-38 338 325
0.023352645 0.70099998 -0.10447236 1.6366835e-38 339 325
0.024651866 0.70300001 -0.10477043 1.6183889e-38 340 325
0.025884461 0.70300001 -0.10477043 1.6276084e-38 341 325
0.027117053 0.70300001 -0.10477043 1.618499e-38 342 325
0.028349647 0.70300001 -0.10477043 1.618499e-38 343 325
0.029498078 0.70099998 -0.10447236 1.6367937e-38 344 325
0.030727165 0.70099998 -0.10447236 1.6644164e-38 345 325
0.031956252 0.70099998 -0.10447236 1.6737788e-38 346 325
0.033137999 0.69999999 -0.10432333 1.6922178e-38 347 325
0.034365334 0.69999999 -0.10432333 1.6922903e-38 348 325
0.035490975 0.69800001 -0.10402527 1.738388e-38 349 325
0.0367148 0.69800001 -0.10402527 1.7752659e-38 350 325
0.037884273 0.69700003 -0.10387623 1.7937051e-38 351 325
0.039106347 0.69700003 -0.10387623 1.8214345e-38 352 325
0.040154841 0.69400001 -0.10342913 1.7568976e-38 353 325
0.041371655 0.69400001 -0.10342913 1.7389297e-38 354 325
0.042588469 0.69400001 -0.10342913 1.9601633e-38 355 325
0 0.69300002 -0.10449516 1.8301848e-38 320 326
0.00121506 0.69300002 -0.10449516 1.8117817e-38 321 326
0.00243012 0.69300002 -0.10449516 1.8301116e-38 322 326
0.0036451798 0.69300002 -0.10449516 1.8301116e-38 323 326
0.0048462129 0.69099998 -0.10419358 1.811817e-38 324 326
0.0060577663 0.69099998 -0.10419358 1.811817e-38 325 326
0.0072693196 0.69099998 -0.10419358 1.7752656e-38 326 326
0.008480873 0.69099998 -0.10419358 1.6554113e-38 327 326
0.0096924258 0.69099998 -0.10419358 1.407636e-38 328 326
0.01090398 0.69099998 -0.10419358 1.4998316e-38 329 326
0.012150601 0.69300002 -0.10449516 1.7750489e-38 330 326
0.013442807 0.69700003 -0.10509831 1.7197674e-38 331 326
0.01468592 0.69800001 -0.10524909 1.7012545e-38 332 326
0.015886955 0.69700003 -0.10509831 1.6735598e-38 333 326
0.017109027 0.69700003 -0.10509831 1.6917122e-38 334 326
0.0183574 0.69800001 -0.10524909 1.6917122e-38 335 326
0.019637333 0.69999999 -0.10555066 1.654871e-38 336 326
0.020864666 0.69999999 -0.10555066 1.67331e-38 337 326
0.022091998 0.69999999 -0.10555066 1.6273924e-38 338 326
0.023352645 0.70099998 -0.10570145 1.6181727e-38 339 326
0.024651866 0.70300001 -0.10600302 1.5906226e-38 340 326
0.025884461 0.70300001 -0.10600302 1.581403e-38 341 326
0.027117053 0.70300001 -0.10600302 1.5814763e-38 342 326
0.028349647 0.70300001 -0.10600302 1.5722567e-38 343 326
0.029582238 0.70300001 -0.10600302 1.5813683e-38 344 326
0.030814834 0.70300001 -0.10600302 1.6090271e-38 345 326
0.031956252 0.70099998 -0.10570145 1.6091346e-38 346 326
0.033137999 0.69999999 -0.10555066 1.6367934e-38 347 326
0.034365334 0.69999999 -0.10555066 1.7010782e-38 348 326
0.035490975 0.69800001 -0.10524909 1.7471759e-38 349 326
0.0367148 0.69800001 -0.10524909 1.7566104e-38 350 326
0.037884273 0.69700003 -0.10509831 1.8027083e-38 351 326
0.039050236 0.69599998 -0.10494751 1.812035e-38 352 326
0.040154841 0.69400001 -0.10464595 1.7935959e-38 353 326
0.041312039 0.69300002 -0.10449516 1.8027095e-38 354 326
0.042527102 0.69300002 -0.10449516 1.8672465e-38 355 326
0.043742158 0.69300002 -0.10449516 1.7404795e-38 356 326
0 0.69 -0.10525259 1.8301113e-38 320 327
0.0012097999 0.69 -0.10525259 1.8301113e-38 321 327
0.0024195998 0.69 -0.10525259 1.830076e-38 322 327
0.0036293997 0.69 -0.10525259 1.830076e-38 323 327
0.0048391996 0.69 -0.10525259 1.8208936e-38 324 327
0.0060489997 0.69 -0.10525259 1.8208936e-38 325 327
0.0072587994 0.69 -0.10525259 1.7109441e-38 326 327
0.0084440531 0.68800002 -0.10494752 1.5726506e-38 327 327
0.0096503468 0.68800002 -0.10494752 1.4167104e-38 328 327
0.010856641 0.68800002 -0.10494752 1.5457842e-38 329 327
0.012150601 0.69300002 -0.10571022 1.784304e-38 330 327
0.013462093 0.69800001 -0.10647292 1.7197671e-38 331 327
0.01468592 0.69800001 -0.10647292 1.6919994e-38 332 327
0.015886955 0.69700003 -0.10632038 1.6550851e-38 333 327
0.017109027 0.69700003 -0.10632038 1.6274643e-38 334 327
0.0183574 0.69800001 -0.10647292 1.6182447e-38 335 327
0.019637333 0.69999999 -0.106778 1.5815116e-38 336 327
0.020864666 0.69999999 -0.106778 1.5722562e-38 337 327
0.022091998 0.69999999 -0.106778 1.5630737e-38 338 327
0.023352645 0.70099998 -0.10693054 1.5354151e-38 339 327
0.024651866 0.70300001 -0.10723562 1.507973e-38 340 327
0.029582238 0.70300001 -0.10723562 1.508046e-38 344 327
0.030814834 0.70300001 -0.10723562 1.5356687e-38 345 327
0.031956252 0.70099998 -0.10693054 1.5632182e-38 346 327
0.033137999 0.69999999 -0.106778 1.5909129e-38 347 327
0.034365334 0.69999999 -0.106778 1.6276104e-38 348 327
0.035490975 0.69800001 -0.10647292 1.6460495e-38 349 327
0.0367148 0.69800001 -0.10647292 1.7104068e-38 350 327
0.037884273 0.69700003 -0.10632038 1.7473211e-38 351 327
0.038938027 0.69400001 -0.10586276 1.7567195e-38 352 327
0.04009698 0.69300002 -0.10571022 1.8028533e-38 353 327
0.041192811 0.69099998 -0.10540513 1.8119634e-38 354 327
0.042342998 0.69 -0.10525259 1.7842687e-38 355 327
0.043426562 0.68800002 -0.10494752 1.7302501e-38 356 327
0.044632856 0.68800002 -0.10494752 1.960775e-38 357 327
0 0.68800002 -0.10615382 1.8301832e-38 320 328
0.0012062934 0.68800002 -0.10615382 1.8209637e-38 321 328
0.0024125867 0.68800002 -0.10615382 1.8301116e-38 322 328
0.0036188802 0.68800002 -0.10615382 1.8485147e-38 323 328
0.0048251734 0.68800002 -0.10615382 1.8117817e-38 324 328
0.0060226996 0.68699998 -0.10599951 1.7933425e-38 325 328
0.0072272392 0.68699998 -0.10599951 1.6555198e-38 326 328
0.0084317802 0.68699998 -0.10599951 1.4249948e-38 327 328
0.0096222926 0.68599999 -0.10584522 1.388908e-38 328 328
0.010825079 0.68599999 -0.10584522 1.5825189e-38 329 328
0.012027865 0.68599999 -0.10584522 1.7750123e-38 330 328
0.013230653 0.68599999 -0.10584522 1.7104754e-38 331 328
0.01468592 0.69800001 -0.10769674 1.6827444e-38 332 328
0.015886955 0.69700003 -0.10754246 1.6366467e-38 333 328
0.017109027 0.69700003 -0.10754246 1.5998779e-38 334 328
0.0183574 0.69800001 -0.10769674 1.5998779e-38 335 328
0.019637333 0.69999999 -0.10800533 1.5355225e-38 336 328
0.020864666 0.69999999 -0.10800533 1.5170475e-38 337 328
0.022123558 0.70099998 -0.10815962 1.4711315e-38 338 328
0.023352645 0.70099998 -0.10815962 1.4619119e-38 339 328
0.031956252 0.70099998 -0.10815962 1.5174075e-38 346 328
0.033137999 0.69999999 -0.10800533 1.5266271e-38 347 328
0.034365334 0.69999999 -0.10800533 1.5999873e-38 348 328
0.035490975 0.69800001 -0.10769674 1.6368656e-38 349 328
0.0367148 0.69800001 -0.10769674 1.7011854e-38 350 328
0.037884273 0.69700003 -0.10754246 1.7196246e-38 351 328
0.038938027 0.69400001 -0.10707957 1.7474265e-38 352 328
0.039981257 0.69099998 -0.10661669 1.8119634e-38 353 328
0.041192811 0.69099998 -0.10661669 1.8029955e-38 354 328
0.042342998 0.69 -0.1064624 1.8306544e-38 355 328
0.043426562 0.68800002 -0.10615382 1.7664802e-38 356 328
0.044632856 0.68800002 -0.10615382 1.9047738e-38 357 328
0.045839146 0.68800002 -0.10615382 1.7318733e-38 358 328
-0.0012062934 0.68800002 -0.10736011 1.8211101e-38 319 329
0 0.68800002 -0.10736011 1.830183e-38 320 329
0.0012045399 0.68699998 -0.10720405 1.8209634e-38 321 329
0.0024090798 0.68699998 -0.10720405 1.8301113e-38 322 329
0.0036136196 0.68699998 -0.10720405 1.8485145e-38 323 329
0.0048111463 0.68599999 -0.10704801 1.8394043e-38 324 329
0.0059964 0.68400002 -0.10673591 1.8117817e-38 325 329
0.0071956799 0.68400002 -0.10673591 1.6278974e-38 326 329
0.0084195063 0.68599999 -0.10704801 1.3974085e-38 327 329
0.0096222926 0.68599999 -0.10704801 1.3888359e-38 328 329
0.010825079 0.68599999 -0.10704801 1.6469836e-38 329 329
0.012027865 0.68599999 -0.10704801 1.7660078e-38 330 329
0.013230653 0.68599999 -0.10704801 1.6830318e-38 331 329
0.01468592 0.69800001 -0.10892057 1.6550504e-38 332 329
0.015886955 0.69700003 -0.10876452 1.6550504e-38 333 329
0.017109027 0.69700003 -0.10876452 1.5264826e-38 334 329
0.0183574 0.69800001 -0.10892057 1.5264826e-38 335 329
0.019637333 0.69999999 -0.10923266 1.407062e-38 336 329
0.034365334 0.69999999 -0.10923266 1.4899302e-38 348 329
0.035592664 0.69999999 -0.10923266 1.536064e-38 349 329
0.0367148 0.69800001 -0.10892057 1.6278977e-38 350 329
0.037884273 0.69700003 -0.10876452 1.6371172e-38 351 329
0.038938027 0.69400001 -0.10829638 1.6923612e-38 352 329
0.039981257 0.69099998 -0.10782824 1.738423e-38 353 329
0.041013971 0.68800002 -0.10736011 1.7846284e-38 354 329
0.042220265 0.68800002 -0.10736011 1.8215067e-38 355 329
0.043363437 0.68699998 -0.10720405 1.7847023e-38 356 329
0.044567976 0.68699998 -0.10720405 1.8308361e-38 357 329
0.045839146 0.68800002 -0.10736011 1.7589908e-38 358 329
0.047045439 0.68800002 -0.10736011 1.9065398e-38 359 329
-0.0012045399 0.68699998 -0.10840859 1.8118905e-38 319 330
0 0.68599999 -0.10825079 1.8394028e-38 320 330
0.0012027866 0.68599999 -0.10825079 1.8301832e-38 321 330
0.0024055731 0.68599999 -0.10825079 1.8484779e-38 322 330
0.00360836 0.68599999 -0.10825079 1.866917e-38 323 330
0.0047971201 0.68400002 -0.1079352 1.8303284e-38 324 330
0.0059964 0.68400002 -0.1079352 1.7934141e-38 325 330
0.0071956799 0.68400002 -0.1079352 1.5913063e-38 326 330
0.0083949603 0.68400002 -0.1079352 1.3884759e-38 327 330
0.0095942402 0.68400002 -0.1079352 1.4347888e-38 328 330
0.01079352 0.68400002 -0.1079352 1.6929366e-38 329 330
0.0119928 0.68400002 -0.1079352 1.7660081e-38 330 330
0.01319208 0.68400002 -0.1079352 1.6922157e-38 331 330
0.01466488 0.69700003 -0.1099866 1.6183536e-38 332 330
0.015886955 0.69700003 -0.1099866 1.609134e-38 333 330
0.017109027 0.69700003 -0.1099866 1.4623788e-38 334 330
0.0183574 0.69800001 -0.1101444 1.4163169e-38 335 330
0.037938625 0.69800001 -0.1101444 1.5637573e-38 351 330
0.039050236 0.69599998 -0.10982879 1.6738144e-38 352 330
0.039981257 0.69099998 -0.10903979 1.7291318e-38 353 330
0.040954359 0.68699998 -0.10840859 1.8029955e-38 354 330
0.042158898 0.68699998 -0.10840859 1.8122152e-38 355 330
0.043363437 0.68699998 -0.10840859 1.7937051e-38 356 330
0.044567976 0.68699998 -0.10840859 1.8213998e-38 357 330
0.045772515 0.68699998 -0.10840859 1.7585577e-38 358 330
0.046977058 0.68699998 -0.10840859 1.9337294e-38 359 330
0.048181597 0.68699998 -0.10840859 1.6956793e-38 360 330
-0.0024055731 0.68599999 -0.10945358 1.830365e-38 318 331
-0.0012027866 0.68599999 -0.10945358 1.8211454e-38 319 331
0 0.68599999 -0.10945358 1.8395103e-38 320 331
0.0012027866 0.68599999 -0.10945358 1.8118517e-38 321 331
0.0023985601 0.68400002 -0.10913448 1.8485495e-38 322 331
0.00359784 0.68400002 -0.10913448 1.8670245e-38 323 331
0.0047971201 0.68400002 -0.10913448 1.8213252e-38 324 331
0.0059876335 0.68300003 -0.10897493 1.7290937e-38 325 331
0.0071851597 0.68300003 -0.10897493 1.5911993e-38 326 331
0.0083949603 0.68400002 -0.10913448 1.4529059e-38 327 331
0.0095942402 0.68400002 -0.10913448 1.5082217e-38 328 331
0.01077774 0.68300003 -0.10897493 1.7478944e-38 329 331
0.011975267 0.68300003 -0.10897493 1.7566808e-38 330 331
0.01319208 0.68400002 -0.10913448 1.6829243e-38 331 331
0.01439136 0.68400002 -0.10913448 1.590948e-38 332 331
0.039050236 0.69599998 -0.11104912 1.6555568e-38 352 331
0.039981257 0.69099998 -0.11025134 1.6832155e-38 353 331
0.040954359 0.68699998 -0.10961314 1.7752656e-38 354 331
0.042158898 0.68699998 -0.10961314 1.7937406e-38 355 331
0.043363437 0.68699998 -0.10961314 1.7936685e-38 356 331
0.044567976 0.68699998 -0.10961314 1.7936685e-38 357 331
0.045772515 0.68699998 -0.10961314 1.758233e-38 358 331
0.046977058 0.68699998 -0.10961314 1.9334407e-38 359 331
0.048181597 0.68699998 -0.10961314 1.7323771e-38 360 331
-0.0024055731 0.68599999 -0.11065637 1.8396199e-38 318 332
-0.0012027866 0.68599999 -0.11065637 1.8304003e-38 319 332
0 0.68400002 -0.11033376 1.848658e-38 320 332
0.00119928 0.68400002 -0.11033376 1.830183e-38 321 332
0.0023985601 0.68400002 -0.11033376 1.8394378e-38 322 332
0.0035925799 0.68300003 -0.11017245 1.8763161e-38 323 332
0.0047901068 0.68300003 -0.11017245 1.821218e-38 324 332
0.0059876335 0.68300003 -0.11017245 1.7197668e-38 325 332
0.0071851597 0.68300003 -0.11017245 1.5543233e-38 326 332
0.0083826864 0.68300003 -0.11017245 1.4252495e-38 327 332
0.0095802136 0.68300003 -0.11017245 1.5355223e-38 328 332
0.010761959 0.68199998 -0.11001115 1.79367e-38 329 332
0.011957732 0.68199998 -0.11001115 1.7751198e-38 330 332
0.013172794 0.68300003 -0.11017245 1.6921438e-38 331 332
0.014370319 0.68300003 -0.11017245 1.5727249e-38 332 332
0.015567848 0.68300003 -0.11017245 1.5635053e-38 333 332
0.04009698 0.69300002 -0.11178552 1.582448e-38 353 332
0.041133199 0.69 -0.11130159 1.7750141e-38 354 332
0.042158898 0.68699998 -0.11081767 1.8211479e-38 355 332
0.043300316 0.68599999 -0.11065637 1.7935603e-38 356 332
0.044503104 0.68599999 -0.11065637 1.8027799e-38 357 332
0.045772515 0.68699998 -0.11081767 1.7672361e-38 358 332
0.046977058 0.68699998 -0.11081767 1.9516273e-38 359 332
0.048251733 0.68800002 -0.11097898 1.7230856e-38 360 332
-0.0023950534 0.68300003 -0.11136997 1.8395129e-38 318 333
-0.0011975267 0.68300003 -0.11136997 1.8210379e-38 319 333
0 0.68300003 -0.11136997 1.8485873e-38 320 333
0.0011975267 0.68300003 -0.11136997 1.8301482e-38 321 333
0.0023950534 0.68300003 -0.11136997 1.8393675e-38 322 333
0.00358732 0.68199998 -0.11120691 1.8762457e-38 323 333
0.004783093 0.68199998 -0.11120691 1.8030322e-38 324 333
0.005978866 0.68199998 -0.11120691 1.6370801e-38 325 333
0.00717464 0.68199998 -0.11120691 1.4618403e-38 326 333
0.0083704125 0.68199998 -0.11120691 1.3696087e-38 327 333
0.0095802136 0.68300003 -0.11136997 1.5076845e-38 328 333
0.010761959 0.68199998 -0.11120691 1.8211495e-38 329 333
0.011957732 0.68199998 -0.11120691 1.7659378e-38 330 333
0.013172794 0.68300003 -0.11136997 1.6921454e-38 331 333
0.014370319 0.68300003 -0.11136997 1.5358472e-38 332 333
0.015567848 0.68300003 -0.11136997 1.5542505e-38 333 333
0.04009698 0.69300002 -0.11300059 1.5366378e-38 353 333
0.041013971 0.68800002 -0.11218528 1.7841971e-38 354 333
0.042158898 0.68699998 -0.11202221 1.830259e-38 355 333
0.043300316 0.68599999 -0.11185916 1.7937754e-38 356 333
0.044503104 0.68599999 -0.11185916 1.8214701e-38 357 333
0.045772515 0.68699998 -0.11202221 1.7396131e-38 358 333
0.046977058 0.68699998 -0.11202221 1.9147848e-38 359 333
0.048251733 0.68800002 -0.11218528 1.7230854e-38 360 333
-0.0035925799 0.68300003 -0.11256751 1.811858e-38 317 334
-0.0023950534 0.68300003 -0.11256751 1.848589e-38 318 334
-0.0011975267 0.68300003 -0.11256751 1.8393694e-38 319 334
0 0.68199998 -0.11240269 1.8484791e-38 320 334
0.0011957732 0.68199998 -0.11240269 1.8484791e-38 321 334
0.0023915465 0.68199998 -0.11240269 1.8302201e-38 322 334
0.00358732 0.68199998 -0.11240269 1.8578789e-38 323 334
0.0047690663 0.68000001 -0.11207306 1.7846654e-38 324 334
0.0059613334 0.68000001 -0.11207306 1.5357372e-38 325 334
0.00717464 0.68199998 -0.11240269 1.4058055e-38 326 334
0.0083704125 0.68199998 -0.11240269 1.3689632e-38 327 334
0.009566186 0.68199998 -0.11240269 1.5348781e-38 328 334
0.010761959 0.68199998 -0.11240269 1.8760019e-38 329 334
0.011957732 0.68199998 -0.11240269 1.7751938e-38 330 334
0.013153506 0.68199998 -0.11240269 1.6922176e-38 331 334
0.01434928 0.68199998 -0.11240269 1.5912362e-38 332 334
0.015545053 0.68199998 -0.11240269 1.6004559e-38 333 334
0.041013971 0.68800002 -0.11339158 1.7659022e-38 354 334
0.042158898 0.68699998 -0.11322675 1.8212195e-38 355 334
0.043110959 0.68300003 -0.11256751 1.784664e-38 356 334
0.044308487 0.68300003 -0.11256751 1.8215064e-38 357 334
0.045572639 0.68400002 -0.11273233 1.7579443e-38 358 334
0.046977058 0.68699998 -0.11322675 1.9054573e-38 359 334
-0.0035925799 0.68300003 -0.11376503 1.8394792e-38 317 335
-0.0023950534 0.68300003 -0.11376503 1.8578442e-38 318 335
-0.0011975267 0.68300003 -0.11376503 1.8393692e-38 319 335
0 0.68199998 -0.11359847 1.8577346e-38 320 335
0.0011957732 0.68199998 -0.11359847 1.8484791e-38 321 335
0.0023915465 0.68199998 -0.11359847 1.8302551e-38 322 335
0.00358732 0.68199998 -0.11359847 1.8486944e-38 323 335
0.0047690663 0.68000001 -0.11326533 1.7661896e-38 324 335
0.0059613334 0.68000001 -0.11326533 1.461944e-38 325 335
0.0071535995 0.68000001 -0.11326533 1.3687089e-38 326 335
0.0083458666 0.68000001 -0.11326533 1.4056232e-38 327 335
0.009524107 0.67900002 -0.11309877 1.5256917e-38 328 335
0.010714619 0.67900002 -0.11309877 1.8391569e-38 329 335
0.011905133 0.67900002 -0.11309877 1.7659742e-38 330 335
0.013114933 0.68000001 -0.11326533 1.7291318e-38 331 335
0.014307199 0.68000001 -0.11326533 1.6101076e-38 332 335
0.015499466 0.68000001 -0.11326533 1.7114868e-38 333 335
0.041133199 0.69 -0.114931 1.7935606e-38 354 335
0.042158898 0.68699998 -0.11443129 1.8119997e-38 355 335
0.043110959 0.68300003 -0.11376503 1.7937754e-38 356 335
0.044308487 0.68300003 -0.11376503 1.8122505e-38 357 335
0.045572639 0.68400002 -0.1139316 1.7396134e-38 358 335
0.046977058 0.68699998 -0.11443129 1.8963099e-38 359 335
-0.00358732 0.68199998 -0.11479424 1.8487338e-38 317 336
-0.0023915465 0.68199998 -0.11479424 1.867099e-38 318 336
-0.0011957732 0.68199998 -0.11479424 1.8394043e-38 319 336
0 0.68199998 -0.11479424 1.8759936e-38 320 336
0.0011957732 0.68199998 -0.11479424 1.8759936e-38 321 336
0.0023845332 0.68000001 -0.11445759 1.8394031e-38 322 336
0.0035767998 0.68000001 -0.11445759 1.8394031e-38 323 336
